# .PCD v0.7 - Point Cloud Data file format
VERSION 0.7
FIELDS x y z
SIZE 4 4 4
TYPE F F F
COUNT 1 1 1
WIDTH 1560
HEIGHT 1
VIEWPOINT 0 0 0 1 0 0 0
POINTS 1560
DATA ascii
27.412498 -44.960228 4.3005652
27.412498 -44.990616 4.301033
27.412498 -45.020599 4.3007941
27.412498 -45.050076 4.3007908
27.412498 -45.080429 4.3006806
27.4125 -45.110924 4.3008962
27.412498 -45.140606 4.3007803
27.4125 -45.170174 4.300777
27.4125 -45.199764 4.3007736
27.4125 -45.230362 4.3007703
27.4125 -45.260986 4.3007665
27.4125 -45.290649 4.3007631
27.4125 -45.320332 4.3007598
27.4125 -45.350037 4.3007565
27.4125 -45.379765 4.3007531
27.412504 -45.409847 4.3021531
27.412512 -45.440487 4.3051891
27.412518 -45.469944 4.3081059
27.412525 -45.498997 4.3109756
27.412529 -45.524975 4.3134937
27.412432 -44.090324 4.2728796
27.412432 -44.120277 4.2727208
27.412432 -44.150322 4.2727919
27.412432 -44.180332 4.2728209
27.412432 -44.210297 4.2726502
27.412434 -44.240295 4.2729173
27.412432 -44.270248 4.2725229
27.412434 -44.300293 4.272891
27.412434 -44.330296 4.2724967
27.412434 -44.360264 4.2728591
27.412434 -44.390316 4.27248
27.412434 -44.42033 4.272819
27.412434 -44.45031 4.272438
27.412436 -44.480309 4.272861
27.412434 -44.510338 4.272346
27.412436 -44.540218 4.2725391
27.412432 -44.570374 4.2713795
27.412434 -44.60046 4.2717276
27.412434 -44.630322 4.2716227
27.412434 -44.66021 4.2713218
27.412434 -44.69043 4.2717609
27.412434 -44.720303 4.2713628
27.412434 -44.750381 4.2715025
27.412436 -44.780483 4.2716417
27.412434 -44.81023 4.271318
27.412434 -44.840443 4.2714992
27.412436 -44.870617 4.2715545
27.412436 -44.900169 4.2714276
27.412436 -44.930206 4.2711864
27.412436 -44.960632 4.2716269
27.412436 -44.99052 4.2713823
27.412436 -45.020031 4.271368
27.412436 -45.050293 4.2711697
27.412437 -45.080814 4.2715263
27.412437 -45.110668 4.2713227
27.412437 -45.140266 4.2713079
27.412436 -45.169891 4.2712932
27.412437 -45.200527 4.2712779
27.412437 -45.23119 4.2712626
27.412439 -45.260315 4.272563
27.412447 -45.289871 4.2754893
27.412453 -45.319313 4.2784019
27.412458 -45.348385 4.2812719
27.412466 -45.374958 4.2838559
27.412367 -44.12027 4.2426815
27.412367 -44.150196 4.2425208
27.412369 -44.180214 4.2427368
27.412367 -44.210247 4.2423677
27.412369 -44.240311 4.2426925
27.412369 -44.270267 4.2423129
27.412369 -44.300247 4.2426395
27.412369 -44.330318 4.242269
27.412369 -44.360279 4.2426386
27.412369 -44.39027 4.2421484
27.412369 -44.420341 4.2425933
27.412369 -44.450314 4.2421017
27.412369 -44.48037 4.2424722
27.412369 -44.510323 4.2421832
27.412371 -44.540298 4.2422175
27.412371 -44.570293 4.242413
27.412369 -44.600262 4.241961
27.412371 -44.630493 4.2424073
27.412371 -44.660309 4.2421451
27.412371 -44.690212 4.2418919
27.412371 -44.720512 4.2423215
27.412371 -44.750267 4.2420654
27.412371 -44.780182 4.2418027
27.412373 -44.810551 4.2422495
27.412373 -44.840443 4.2419858
27.412373 -44.870094 4.2418036
27.412371 -44.900604 4.2417097
27.412371 -44.930679 4.2410336
27.412369 -44.960327 4.2408934
27.412371 -44.990002 4.2407522
27.412371 -45.020367 4.2407961
27.412371 -45.050812 4.2409701
27.412371 -45.080513 4.2409101
27.412376 -45.109715 4.2430654
27.412382 -45.139244 4.245986
27.412388 -45.168655 4.2488928
27.412395 -45.198544 4.2516613
27.412401 -45.226223 4.2543344
27.412306 -44.120228 4.2134318
27.412304 -44.150211 4.2131586
27.412306 -44.180286 4.2133636
27.412306 -44.210316 4.2130814
27.412306 -44.240311 4.2132792
27.412306 -44.270325 4.2130051
27.412306 -44.300297 4.2132545
27.412306 -44.330406 4.2127366
27.412304 -44.360287 4.2122769
27.412304 -44.390278 4.2117376
27.412304 -44.420292 4.2120891
27.412304 -44.450268 4.2118311
27.412304 -44.48027 4.2118449
27.412306 -44.510231 4.2120547
27.412304 -44.540222 4.2115445
27.412306 -44.570412 4.2119474
27.412306 -44.600327 4.2117181
27.412304 -44.630207 4.2114844
27.412306 -44.660461 4.2118955
27.412306 -44.690327 4.2116027
27.412306 -44.720158 4.2113128
27.412306 -44.750484 4.2117167
27.412306 -44.780479 4.2115483
27.412306 -44.810131 4.2113347
27.412306 -44.840233 4.2112827
27.412308 -44.870594 4.2116122
27.412306 -44.900311 4.211082
27.412304 -44.929974 4.2103682
27.41231 -44.959339 4.2122898
27.412315 -44.989708 4.2155724
27.412323 -45.019802 4.2183752
27.412329 -45.048504 4.2211981
27.412334 -45.072083 4.223454
27.412239 -44.120182 4.1829553
27.412239 -44.150223 4.1828303
27.412239 -44.180225 4.1828356
27.412241 -44.210255 4.1827297
27.412241 -44.240246 4.1827707
27.412241 -44.27026 4.1825738
27.412241 -44.30024 4.1827865
27.412241 -44.330135 4.1822395
27.412239 -44.360298 4.1817594
27.412237 -44.390278 4.1812563
27.412239 -44.42028 4.1814799
27.412239 -44.450241 4.1814647
27.412239 -44.480225 4.1811404
27.412239 -44.510426 4.1815071
27.412239 -44.540329 4.1811047
27.412239 -44.570255 4.1810484
27.412241 -44.60046 4.1813478
27.412239 -44.630238 4.1810665
27.412239 -44.66011 4.1807771
27.412241 -44.690445 4.1811442
27.412239 -44.720425 4.1809759
27.412241 -44.750107 4.1807508
27.412241 -44.780079 4.1808143
27.412245 -44.810005 4.1830888
27.412251 -44.839912 4.1857905
27.412258 -44.869228 4.1886826
27.412264 -44.898029 4.1915178
27.41227 -44.92218 4.1938629
27.412174 -44.090164 4.1525712
27.412174 -44.120117 4.1522622
27.412174 -44.150158 4.1524377
27.412174 -44.180222 4.1521373
27.412174 -44.210247 4.1522708
27.412174 -44.240231 4.1520972
27.412174 -44.270237 4.1520433
27.412176 -44.300205 4.1521611
27.412174 -44.330193 4.1517649
27.412176 -44.360271 4.1520615
27.412176 -44.390244 4.1517248
27.412176 -44.420242 4.1516981
27.412176 -44.450321 4.1519108
27.412176 -44.48024 4.151443
27.412176 -44.510239 4.1515455
27.412176 -44.540325 4.1517243
27.412174 -44.570251 4.1512899
27.412176 -44.600258 4.1513071
27.412176 -44.630417 4.1516156
27.412182 -44.659855 4.1533837
27.412188 -44.689285 4.1562867
27.412193 -44.718571 4.159173
27.412201 -44.747944 4.1620693
27.412205 -44.772629 4.1644106
27.412111 -44.090195 4.122869
27.412111 -44.120266 4.1226416
27.412111 -44.150177 4.1227565
27.412111 -44.180168 4.1224513
27.412111 -44.210186 4.1226258
27.412111 -44.240166 4.1223459
27.412111 -44.270164 4.1223235
27.412111 -44.30019 4.1224298
27.412111 -44.330238 4.1220202
27.412111 -44.360245 4.1222134
27.412111 -44.390213 4.1220961
27.412111 -44.4202 4.1218491
27.412113 -44.450279 4.1220341
27.412113 -44.480183 4.1219449
27.412115 -44.50948 4.12363
27.412123 -44.539455 4.1266994
27.41213 -44.569466 4.1297722
27.412136 -44.598621 4.132484
27.41214 -44.62273 4.13482
27.412048 -44.060108 4.0931993
27.412048 -44.090088 4.092967
27.412048 -44.120159 4.092967
27.412046 -44.150188 4.0928893
27.412048 -44.18018 4.0926828
27.412048 -44.210129 4.092865
27.412046 -44.240162 4.0924425
27.412048 -44.270157 4.0925121
27.412048 -44.300175 4.0925817
27.412048 -44.330154 4.0922275
27.412052 -44.35965 4.0943842
27.41206 -44.389614 4.0974331
27.412066 -44.419357 4.099978
27.412071 -44.448227 4.1028209
27.412077 -44.472874 4.105248
27.411982 -44.04248 4.0620518
27.411983 -44.060207 4.0633006
27.411983 -44.090244 4.063056
27.411983 -44.120117 4.0631762
27.411983 -44.150139 4.0628448
27.411983 -44.180187 4.0628505
27.411987 -44.209728 4.0649042
27.411995 -44.23946 4.0675921
27.412001 -44.268864 4.0704517
27.412006 -44.298321 4.0734553
27.412012 -44.32328 4.0757775
27.411919 -44.04126 4.0326414
27.411922 -44.059521 4.0350981
27.41193 -44.089355 4.0379295
27.411936 -44.119354 4.0410542
27.411943 -44.148827 4.043788
27.411947 -44.173428 4.046206
27.412928 -46.468834 4.4960546
27.412931 -46.492435 4.497612
27.412937 -46.521832 4.5005355
27.412945 -46.551567 4.5034962
27.412949 -46.570946 4.5054264
27.412861 -46.31427 4.4653769
27.412867 -46.341831 4.4681559
27.412872 -46.371479 4.4709244
27.41288 -46.401329 4.4739246
27.412886 -46.43132 4.4769034
27.412891 -46.460815 4.478909
27.412889 -46.490845 4.4781222
27.412889 -46.520844 4.4781866
27.412889 -46.550724 4.4783216
27.412796 -46.165508 4.4358497
27.412804 -46.192848 4.4385424
27.412809 -46.222187 4.4414549
27.412815 -46.251781 4.4444642
27.412823 -46.281387 4.4474607
27.412825 -46.310749 4.448566
27.412825 -46.340729 4.4486289
27.412825 -46.370735 4.448647
27.412825 -46.400761 4.4486828
27.412827 -46.430744 4.4487014
27.412827 -46.460819 4.4487638
27.412827 -46.490849 4.4488173
27.412827 -46.520767 4.4489408
27.412827 -46.550941 4.4486241
27.412731 -46.015518 4.4062295
27.412737 -46.042217 4.4088359
27.412745 -46.071453 4.4117312
27.41275 -46.101074 4.4146705
27.412758 -46.131054 4.4178152
27.412762 -46.160625 4.4189272
27.412762 -46.190613 4.4189606
27.412762 -46.220627 4.4189939
27.412762 -46.250732 4.4190974
27.412762 -46.280792 4.4192543
27.412762 -46.310741 4.419261
27.412762 -46.340714 4.4192681
27.412762 -46.370945 4.4188633
27.412762 -46.400745 4.4182935
27.412762 -46.430805 4.4183021
27.412762 -46.460762 4.4184265
27.412762 -46.490677 4.4184723
27.412762 -46.520679 4.4185553
27.412762 -46.550537 4.4181538
27.412668 -45.864754 4.3766994
27.412674 -45.892017 4.3794727
27.412682 -45.921776 4.3823743
27.412687 -45.951527 4.3853364
27.412693 -45.981377 4.3880754
27.412697 -46.010769 4.3894372
27.412697 -46.040703 4.3894591
27.412697 -46.070656 4.3894815
27.412697 -46.100636 4.3895035
27.412697 -46.130638 4.3895254
27.412697 -46.160664 4.3895473
27.412697 -46.190891 4.3889265
27.412697 -46.220623 4.3885441
27.412697 -46.250664 4.3886118
27.412697 -46.280731 4.3888197
27.412697 -46.310692 4.3888464
27.412697 -46.340679 4.3887978
27.412697 -46.370514 4.3884134
27.412695 -46.400764 4.3877616
27.412695 -46.430733 4.387836
27.412697 -46.46072 4.3879371
27.412697 -46.490734 4.3880115
27.412697 -46.520771 4.3879614
27.412603 -45.715988 4.3471718
27.412609 -45.742638 4.3497672
27.412617 -45.771812 4.3526516
27.412622 -45.80138 4.3555799
27.412628 -45.831085 4.3585238
27.412632 -45.860451 4.3598509
27.412632 -45.890457 4.3598704
27.412632 -45.920486 4.3598895
27.412632 -45.950542 4.3599091
27.412632 -45.98074 4.3597903
27.41263 -46.010765 4.3589635
27.412632 -46.040829 4.3590446
27.412632 -46.070793 4.3591013
27.412632 -46.100712 4.359087
27.412632 -46.130657 4.3590727
27.412632 -46.160622 4.3590589
27.412632 -46.190361 4.3584619
27.41263 -46.220585 4.3580313
27.41263 -46.250607 4.3580146
27.412632 -46.280651 4.3582635
27.412632 -46.310654 4.3582735
27.412632 -46.340675 4.358212
27.412632 -46.370724 4.3581777
27.412632 -46.400726 4.3581161
27.412632 -46.430683 4.3582416
27.412634 -46.460667 4.3583674
27.412634 -46.490738 4.3583059
27.412634 -46.520832 4.3582444
27.412539 -45.565231 4.3176427
27.412544 -45.591934 4.3200455
27.41255 -45.621029 4.3229184
27.412558 -45.650837 4.3260345
27.412563 -45.68103 4.3289952
27.412567 -45.710663 4.3302827
27.412567 -45.740677 4.3302994
27.412567 -45.770824 4.330152
27.412565 -45.800728 4.3293295
27.412567 -45.830688 4.3293495
27.412565 -45.860607 4.329349
27.412567 -45.890549 4.3293486
27.412567 -45.920517 4.3293481
27.412567 -45.950504 4.3293471
27.412567 -45.980335 4.3291831
27.412565 -46.010357 4.3283429
27.412565 -46.040409 4.328341
27.412565 -46.070553 4.3284101
27.412567 -46.100719 4.3284793
27.412567 -46.130775 4.3285222
27.412567 -46.160717 4.3285122
27.412567 -46.190617 4.3284392
27.412567 -46.220604 4.328402
27.412567 -46.250618 4.32832
27.412567 -46.280655 4.3284612
27.412569 -46.310711 4.3286023
27.412569 -46.34066 4.3285294
27.412569 -46.370628 4.3284292
27.412569 -46.400688 4.3283558
27.412569 -46.430706 4.3285961
27.412569 -46.460674 4.3285947
27.412569 -46.490738 4.328485
27.412569 -46.52076 4.3284197
27.412476 -45.416462 4.2881145
27.412479 -45.443058 4.2907
27.412487 -45.472179 4.2935729
27.412493 -45.501686 4.2964897
27.412498 -45.531338 4.2994223
27.4125 -45.560627 4.2997456
27.4125 -45.590519 4.2997417
27.4125 -45.620438 4.2997379
27.4125 -45.650375 4.2997341
27.412502 -45.68034 4.2997303
27.412502 -45.710327 4.2997265
27.412502 -45.740337 4.2997227
27.412502 -45.770264 4.2995939
27.4125 -45.800457 4.2987261
27.4125 -45.830536 4.2987223
27.4125 -45.860641 4.298718
27.4125 -45.89077 4.2987137
27.4125 -45.920921 4.2987094
27.412502 -45.950901 4.2988658
27.412502 -45.980759 4.2987633
27.412502 -46.010643 4.2987237
27.412502 -46.04055 4.298666
27.412502 -46.070484 4.2985811
27.412502 -46.100437 4.2985682
27.412502 -46.130619 4.2986798
27.412504 -46.160759 4.2988367
27.412504 -46.190712 4.2987523
27.412502 -46.220627 4.2986493
27.412504 -46.250561 4.2985554
27.412504 -46.280655 4.298543
27.412504 -46.310707 4.2988529
27.412504 -46.340641 4.2987046
27.412504 -46.37067 4.2985921
27.412504 -46.400654 4.2985063
27.412506 -46.430592 4.2988
27.412506 -46.460621 4.2986517
27.412506 -46.490742 4.2985482
27.412506 -46.520679 4.2986617
27.412506 -46.550571 4.2986751
27.412409 -45.267258 4.2579865
27.412415 -45.292027 4.2599525
27.41242 -45.321274 4.2628374
27.412426 -45.3508 4.2657542
27.412434 -45.380444 4.268683
27.412436 -45.409706 4.270185
27.412437 -45.440174 4.2704062
27.412436 -45.470943 4.2699718
27.412437 -45.501205 4.2700763
27.412437 -45.531178 4.270123
27.412436 -45.561123 4.2691183
27.412436 -45.591076 4.2691026
27.412436 -45.621052 4.2690868
27.412436 -45.651054 4.2690711
27.412436 -45.681076 4.2690554
27.412436 -45.71106 4.2691016
27.412436 -45.740997 4.2690773
27.412437 -45.770889 4.2690883
27.412437 -45.800735 4.2690372
27.412437 -45.830608 4.2689857
27.412437 -45.860432 4.2689075
27.412437 -45.890285 4.2688651
27.412437 -45.920223 4.2688141
27.412437 -45.950325 4.2689142
27.412437 -45.980583 4.268898
27.412437 -46.010799 4.2689447
27.412439 -46.040768 4.2690287
27.412439 -46.070618 4.268878
27.412439 -46.100563 4.2687812
27.412439 -46.130463 4.268621
27.412439 -46.160591 4.2688036
27.412439 -46.190742 4.2689867
27.412439 -46.220646 4.2688265
27.412439 -46.250572 4.2686663
27.412439 -46.280586 4.268579
27.412441 -46.310631 4.2689242
27.412441 -46.340622 4.2687635
27.412441 -46.370644 4.2686028
27.412441 -46.400616 4.2686324
27.412441 -46.430611 4.2687888
27.412441 -46.460701 4.2686281
27.412441 -46.490677 4.2685852
27.412441 -46.520603 4.2686787
27.412441 -46.550957 4.2680206
27.412338 -45.093243 4.2259498
27.412344 -45.113323 4.2276869
27.41235 -45.141239 4.2304187
27.412355 -45.171242 4.2332182
27.412361 -45.201653 4.2363009
27.412369 -45.231552 4.23913
27.412371 -45.26059 4.2403722
27.412371 -45.29055 4.2396073
27.412371 -45.320351 4.2395802
27.412371 -45.350178 4.239553
27.412371 -45.380024 4.2395258
27.412371 -45.409897 4.2394986
27.412371 -45.439793 4.2394714
27.412371 -45.469707 4.2394443
27.412371 -45.49979 4.2395306
27.412371 -45.530018 4.2394681
27.412371 -45.560135 4.2393618
27.412373 -45.590145 4.2393346
27.412373 -45.620113 4.2392716
27.412373 -45.650036 4.2392359
27.412373 -45.679985 4.2391996
27.412373 -45.709953 4.2391634
27.412373 -45.740017 4.2391982
27.412373 -45.770172 4.2391706
27.412373 -45.800346 4.2391434
27.412373 -45.830544 4.2391157
27.412373 -45.860767 4.2390885
27.412374 -45.890881 4.2391772
27.412374 -45.920746 4.2391601
27.412374 -45.950562 4.2390065
27.412374 -45.980404 4.238853
27.412374 -46.010338 4.2388358
27.412374 -46.040569 4.2389245
27.412374 -46.070755 4.2390594
27.412374 -46.100689 4.2389607
27.412374 -46.130581 4.2387886
27.412374 -46.160492 4.238616
27.412376 -46.190571 4.238905
27.412376 -46.220669 4.2388878
27.412376 -46.250584 4.238688
27.412376 -46.280521 4.2385068
27.412376 -46.310555 4.2388787
27.412376 -46.340607 4.2387061
27.412376 -46.370613 4.2384872
27.412376 -46.400578 4.2386427
27.412376 -46.430565 4.2386613
27.412376 -46.460644 4.2384515
27.412376 -46.490608 4.2385521
27.412378 -46.520596 4.2385426
27.412376 -46.550392 4.2378507
27.412376 -46.580627 4.2375202
27.412275 -44.943497 4.1964245
27.412279 -44.964027 4.1981096
27.412285 -44.992435 4.2008824
27.412291 -45.021622 4.2037559
27.412298 -45.051094 4.2066612
27.412304 -45.080563 4.2094259
27.412306 -45.109844 4.210073
27.412306 -45.139973 4.2098017
27.412306 -45.170685 4.2102232
27.412306 -45.201061 4.2099547
27.412306 -45.23085 4.2099161
27.412306 -45.260666 4.2098775
27.412306 -45.290501 4.2098389
27.412306 -45.320362 4.2097998
27.412308 -45.350246 4.2097611
27.412306 -45.38015 4.2097225
27.412308 -45.41008 4.2096834
27.412308 -45.440033 4.2096448
27.412308 -45.470013 4.2096057
27.412308 -45.500011 4.2095671
27.412308 -45.530033 4.209528
27.412308 -45.560081 4.2094889
27.412308 -45.590149 4.2094502
27.412308 -45.620243 4.2094111
27.412308 -45.65036 4.209372
27.412308 -45.6805 4.2093329
27.412308 -45.710663 4.2092938
27.412308 -45.740852 4.2092547
27.41231 -45.770931 4.2093325
27.41231 -45.800762 4.2093039
27.41231 -45.830479 4.2091203
27.412308 -45.860218 4.2089367
27.41231 -45.890186 4.2089982
27.41231 -45.920448 4.2090216
27.41231 -45.950733 4.2090449
27.41231 -45.980774 4.2091069
27.41231 -46.010559 4.2089047
27.41231 -46.040371 4.2087026
27.41231 -46.07048 4.2087646
27.41231 -46.100681 4.208951
27.412312 -46.13063 4.2088404
27.412312 -46.160534 4.2086191
27.41231 -46.190598 4.2085085
27.412312 -46.220619 4.2088614
27.412312 -46.250591 4.208612
27.412312 -46.28059 4.2083716
27.412312 -46.310612 4.2086163
27.412312 -46.340656 4.2085686
27.412312 -46.370655 4.2083001
27.412312 -46.400608 4.2084818
27.412312 -46.430584 4.208406
27.412312 -46.460655 4.2081375
27.412313 -46.490608 4.2084675
27.412312 -46.520588 4.2081976
27.412313 -46.550587 4.2081676
27.412313 -46.580608 4.2082572
27.41231 -46.598331 4.2066526
27.41221 -44.793755 4.1668997
27.412214 -44.8139 4.1684279
27.41222 -44.841625 4.1711416
27.412226 -44.870781 4.1740117
27.412233 -44.900661 4.1767316
27.412239 -44.930958 4.179883
27.412241 -44.960766 4.1806231
27.412241 -44.990562 4.1804595
27.412241 -45.020248 4.1804094
27.412241 -45.049957 4.1803594
27.412241 -45.079758 4.1802473
27.412241 -45.11018 4.1801047
27.412243 -45.140865 4.1804223
27.412241 -45.171013 4.1801553
27.412243 -45.200836 4.1801047
27.412243 -45.230686 4.1800547
27.412243 -45.260559 4.1800041
27.412243 -45.290455 4.1799541
27.412243 -45.320374 4.1799035
27.412243 -45.350315 4.179853
27.412243 -45.38028 4.1798024
27.412243 -45.410267 4.1797519
27.412243 -45.440281 4.1797013
27.412243 -45.470314 4.1796508
27.412243 -45.500374 4.1796002
27.412243 -45.530457 4.1795492
27.412243 -45.560562 4.1794987
27.412243 -45.590691 4.1794477
27.412243 -45.620842 4.1793971
27.412243 -45.65102 4.1793461
27.412245 -45.680893 4.1795239
27.412245 -45.710503 4.1792641
27.412243 -45.740204 4.1790686
27.412245 -45.770069 4.1790285
27.412245 -45.800232 4.1790948
27.412245 -45.830551 4.1790438
27.412245 -45.86076 4.1791101
27.412245 -45.890652 4.1790795
27.412245 -45.920425 4.1788373
27.412245 -45.950291 4.1786413
27.412245 -45.980457 4.178791
27.412247 -46.010715 4.1789036
27.412245 -46.040588 4.1787724
27.412245 -46.070408 4.1785116
27.412245 -46.100533 4.1784711
27.412247 -46.130611 4.1787672
27.412247 -46.160507 4.1784873
27.412247 -46.190422 4.1782079
27.412247 -46.220505 4.1785502
27.412247 -46.250607 4.1784277
27.412247 -46.28059 4.1781473
27.412247 -46.310604 4.1782808
27.412247 -46.340569 4.178267
27.412247 -46.37056 4.1779494
27.412247 -46.40057 4.1782494
27.412247 -46.430607 4.1780324
27.412249 -46.46011 4.1789165
27.412256 -46.490002 4.182178
27.412262 -46.519745 4.184937
27.41227 -46.549095 4.1877527
27.412275 -46.577324 4.1906338
27.412146 -44.644012 4.1373754
27.412149 -44.663151 4.1389008
27.412155 -44.691547 4.141542
27.412163 -44.721592 4.1447334
27.41217 -44.751392 4.1475692
27.412174 -44.7808 4.1503215
27.412176 -44.809982 4.150949
27.412176 -44.839989 4.1506538
27.412176 -44.870461 4.1509438
27.412178 -44.900703 4.1508751
27.412178 -44.930511 4.1506991
27.412178 -44.960209 4.1506371
27.412178 -44.989929 4.1505756
27.412178 -45.019814 4.1503992
27.412178 -45.05011 4.150321
27.412178 -45.080742 4.1506281
27.412178 -45.111031 4.1503243
27.412178 -45.140869 4.1502624
27.412178 -45.170731 4.1502004
27.412178 -45.200615 4.1501384
27.412178 -45.230522 4.1500764
27.412178 -45.260452 4.1500144
27.412178 -45.290405 4.1499519
27.412178 -45.320381 4.1498899
27.412178 -45.350384 4.1498275
27.412178 -45.380405 4.1497655
27.412178 -45.410454 4.149703
27.412178 -45.440525 4.1496406
27.412178 -45.470619 4.1495781
27.412178 -45.500736 4.1495156
27.412178 -45.53088 4.1494532
27.412178 -45.561043 4.1493902
27.41218 -45.590908 4.1495571
27.412178 -45.620434 4.1492672
27.412178 -45.64999 4.1489773
27.41218 -45.67992 4.1491437
27.41218 -45.710201 4.1490808
27.41218 -45.740509 4.1490178
27.41218 -45.770836 4.1489549
27.41218 -45.800793 4.1491418
27.41218 -45.830418 4.1487856
27.41218 -45.860203 4.1485686
27.41218 -45.890362 4.1487069
27.41218 -45.920677 4.1487617
27.41218 -45.950603 4.1487203
27.41218 -45.980347 4.1483822
27.41218 -46.010387 4.1483402
27.412182 -46.040596 4.1485596
27.412182 -46.070549 4.148416
27.41218 -46.100384 4.148087
27.412182 -46.130524 4.1482086
27.412182 -46.160614 4.1483407
27.412182 -46.190453 4.1479454
27.412182 -46.220524 4.1479669
27.412182 -46.250618 4.1481538
27.412182 -46.280525 4.147758
27.412184 -46.310059 4.1490731
27.412191 -46.340023 4.1522412
27.412197 -46.369518 4.15488
27.412203 -46.398811 4.1577854
27.41221 -46.42659 4.1605434
27.412085 -44.513805 4.1093245
27.412092 -44.542042 4.1120725
27.412098 -44.57114 4.1149311
27.412104 -44.6007 4.1177115
27.412109 -44.630581 4.120523
27.412113 -44.660378 4.1215162
27.412113 -44.690449 4.1214266
27.412113 -44.72015 4.1212392
27.412111 -44.750011 4.1209736
27.412113 -44.780216 4.1210475
27.412113 -44.81057 4.1212497
27.412113 -44.840637 4.1209421
27.412113 -44.870323 4.1208687
27.412113 -44.900032 4.1207952
27.412113 -44.929832 4.1206598
27.412113 -44.959988 4.1204734
27.412113 -44.990417 4.120616
27.412113 -45.020809 4.1206899
27.412113 -45.050911 4.1204233
27.412113 -45.080761 4.1203494
27.412113 -45.110634 4.120276
27.412113 -45.140526 4.1202021
27.412113 -45.170448 4.1201282
27.412113 -45.20039 4.1200542
27.412113 -45.230354 4.1199803
27.412113 -45.260345 4.1199064
27.412113 -45.290356 4.1198325
27.412113 -45.320393 4.1197586
27.412115 -45.350452 4.1196842
27.412115 -45.380535 4.1196103
27.412113 -45.410641 4.1195359
27.412113 -45.440773 4.1194615
27.412113 -45.470924 4.1193871
27.412115 -45.501102 4.1193128
27.412115 -45.530846 4.1194987
27.412113 -45.560104 4.1189728
27.412115 -45.589821 4.119031
27.412115 -45.620029 4.1190195
27.412115 -45.650322 4.1189446
27.412115 -45.680641 4.1188698
27.412115 -45.71085 4.1189132
27.412115 -45.740608 4.1188517
27.412115 -45.770103 4.1183996
27.412115 -45.800121 4.1185751
27.412115 -45.830555 4.1184998
27.412115 -45.860752 4.1186275
27.412115 -45.89048 4.1183519
27.412115 -45.920235 4.1180768
27.412115 -45.9505 4.1182041
27.412115 -45.980652 4.1183801
27.412115 -46.010406 4.1179729
27.412115 -46.040394 4.1178179
27.412115 -46.070549 4.1181107
27.412115 -46.100513 4.1178617
27.412115 -46.130432 4.1175294
27.412119 -46.160034 4.1195059
27.412127 -46.189976 4.1224318
27.412132 -46.219406 4.1249127
27.412138 -46.248581 4.1278582
27.412144 -46.275894 4.1304708
27.412018 -44.344532 4.0783262
27.412022 -44.363625 4.079843
27.412027 -44.39127 4.082541
27.412033 -44.420837 4.085052
27.412039 -44.450943 4.0881772
27.412046 -44.480846 4.0912127
27.412048 -44.510185 4.0917635
27.412048 -44.54007 4.0915661
27.412048 -44.570232 4.0916972
27.412048 -44.600353 4.0917602
27.412048 -44.63018 4.0914826
27.412048 -44.660027 4.0912046
27.412048 -44.69022 4.0912671
27.412048 -44.720501 4.0913982
27.412048 -44.750549 4.0912004
27.412048 -44.780293 4.0910535
27.412048 -44.80999 4.0909681
27.412048 -44.839912 4.090724
27.412048 -44.870117 4.0907087
27.412048 -44.90041 4.0907621
27.412048 -44.930721 4.090816
27.412048 -44.960812 4.0905371
27.412048 -44.990646 4.0904517
27.412048 -45.020508 4.0903664
27.412048 -45.050392 4.090281
27.412048 -45.080299 4.0901952
27.412048 -45.110229 4.0901098
27.412048 -45.140186 4.090024
27.412048 -45.170162 4.0899382
27.412048 -45.200165 4.0898523
27.412048 -45.23019 4.0897665
27.412048 -45.260235 4.0896807
27.412048 -45.290306 4.0895948
27.41205 -45.320404 4.0895085
27.412048 -45.350521 4.0894227
27.41205 -45.380665 4.0893364
27.41205 -45.410828 4.0892501
27.41205 -45.441017 4.0891638
27.41205 -45.470844 4.0893283
27.412048 -45.500042 4.0887418
27.41205 -45.529709 4.0889101
27.41205 -45.559994 4.0888233
27.41205 -45.590302 4.0887365
27.41205 -45.620628 4.0886502
27.41205 -45.650852 4.0886822
27.41205 -45.680557 4.0885911
27.41205 -45.710064 4.0881634
27.41205 -45.740162 4.0883083
27.41205 -45.770607 4.0882211
27.41205 -45.800682 4.0883861
27.41205 -45.830284 4.0879197
27.41205 -45.860191 4.0878463
27.41205 -45.890602 4.0878778
27.41205 -45.9207 4.0880537
27.41205 -45.950325 4.0875111
27.41205 -45.9804 4.0875573
27.412054 -46.010197 4.0896177
27.412062 -46.039886 4.0923972
27.412067 -46.06921 4.0950813
27.412073 -46.09861 4.0981011
27.412079 -46.124634 4.1005869
27.411957 -44.213203 4.0500312
27.411963 -44.241657 4.0528975
27.411968 -44.27137 4.0558896
27.411976 -44.300831 4.0587296
27.411982 -44.330544 4.0613279
27.411983 -44.360191 4.0622644
27.411983 -44.390274 4.0623846
27.411983 -44.420189 4.0619545
27.411983 -44.450123 4.061841
27.411983 -44.480274 4.0619612
27.411983 -44.510323 4.0619345
27.411983 -44.540134 4.0616169
27.411983 -44.570034 4.0614238
27.411983 -44.600216 4.0614834
27.411983 -44.630421 4.061543
27.411983 -44.660389 4.0613499
27.411983 -44.690121 4.0611911
27.411983 -44.71994 4.0609784
27.411983 -44.750046 4.0608726
27.411983 -44.780304 4.060915
27.411983 -44.810581 4.060957
27.411983 -44.840694 4.0607634
27.411983 -44.870567 4.0606036
27.411983 -44.900394 4.0605063
27.411983 -44.930244 4.0604095
27.411983 -44.960114 4.0603123
27.411983 -44.990013 4.060215
27.411983 -45.019932 4.0601172
27.411983 -45.049873 4.06002
27.411983 -45.079838 4.0599227
27.411983 -45.109829 4.0598249
27.411983 -45.139843 4.0597272
27.411983 -45.16988 4.0596294
27.411983 -45.19994 4.0595317
27.411983 -45.230022 4.0594339
27.411983 -45.260128 4.0593357
27.411983 -45.29026 4.059238
27.411985 -45.320412 4.0591397
27.411983 -45.35059 4.0590415
27.411985 -45.380795 4.0589433
27.411983 -45.411018 4.0588446
27.411985 -45.440678 4.0590024
27.411983 -45.46991 4.0584025
27.411983 -45.499817 4.0585556
27.411983 -45.530136 4.0584569
27.411985 -45.560478 4.0583582
27.411985 -45.590843 4.0582595
27.411985 -45.620705 4.0584249
27.411983 -45.650082 4.0578051
27.411983 -45.680058 4.0579691
27.411985 -45.710255 4.0582623
27.411987 -45.740692 4.0589905
27.411987 -45.770313 4.0586157
27.411987 -45.800114 4.0584822
27.411987 -45.830528 4.0585012
27.411989 -45.860229 4.0596647
27.411995 -45.889606 4.0622106
27.412003 -45.919041 4.0652714
27.412008 -45.948822 4.0681691
27.412014 -45.974255 4.0706434
27.411884 -44.040985 4.0172873
27.41189 -44.06184 4.0198479
27.411898 -44.091572 4.0232477
27.411903 -44.120846 4.0259967
27.411911 -44.150711 4.0289106
27.411917 -44.180603 4.0319309
27.411919 -44.210133 4.0327821
27.411919 -44.240158 4.0324712
27.411919 -44.270142 4.0325284
27.411921 -44.300148 4.032568
27.411919 -44.330112 4.0320725
27.411919 -44.360165 4.0321126
27.411921 -44.390244 4.0321693
27.411919 -44.420147 4.0320525
27.411919 -44.450077 4.0316343
27.411919 -44.48016 4.0316653
27.411919 -44.510265 4.0316963
27.411921 -44.540325 4.0316577
27.411919 -44.570156 4.0313897
27.411919 -44.600006 4.0311213
27.411919 -44.630074 4.0310912
27.411919 -44.660233 4.0310783
27.411919 -44.690414 4.0310569
27.411919 -44.72049 4.0309563
27.411919 -44.750389 4.0307317
27.411919 -44.780182 4.030623
27.411919 -44.809998 4.0305142
27.411919 -44.839832 4.030405
27.411919 -44.869762 4.0302334
27.411919 -44.89978 4.0301323
27.411919 -44.929821 4.0300317
27.411919 -44.959953 4.0299039
27.411919 -44.99004 4.0298567
27.411919 -45.020016 4.0297475
27.411921 -45.050018 4.0296378
27.411919 -45.079906 4.0295925
27.411921 -45.109615 4.0295849
27.411919 -45.139496 4.0293112
27.411919 -45.169594 4.0292015
27.411919 -45.199711 4.0290914
27.411919 -45.229855 4.0289812
27.411919 -45.260021 4.0288711
27.411919 -45.290211 4.0287609
27.411919 -45.320423 4.0286508
27.411921 -45.350452 4.0292745
27.411921 -45.380917 4.0294495
27.411922 -45.410713 4.0295873
27.411921 -45.439976 4.0289888
27.411922 -45.469814 4.0291262
27.411922 -45.500168 4.029016
27.411921 -45.530544 4.0289054
27.411921 -45.560879 4.0288587
27.411922 -45.590431 4.0287437
27.411921 -45.61993 4.0284624
27.411921 -45.650261 4.02847
27.411921 -45.680756 4.0283589
27.411926 -45.710331 4.0303593
27.411932 -45.739319 4.0333977
27.41194 -45.769043 4.0365167
27.411945 -45.798836 4.0394025
27.411951 -45.826851 4.0419016
27.41185 -44.039902 4.0012937
27.411854 -44.060375 4.0025783
27.411856 -44.090042 4.0031533
27.411856 -44.120094 4.0028219
27.411854 -44.150108 4.0027261
27.411856 -44.18008 4.002789
27.411854 -44.210136 4.002492
27.411854 -44.240154 4.0023265
27.411856 -44.270134 4.002346
27.411856 -44.300133 4.0023656
27.411854 -44.330154 4.0018563
27.411854 -44.360138 4.0018754
27.411856 -44.390144 4.0018601
27.411856 -44.420238 4.0018797
27.411854 -44.450161 4.0015016
27.411854 -44.480042 4.0013103
27.411854 -44.510139 4.0012684
27.411854 -44.540264 4.0012527
27.411856 -44.570343 4.0012107
27.411854 -44.600319 4.001019
27.411854 -44.630119 4.0008359
27.411854 -44.659943 4.0006523
27.411854 -44.689922 4.0004954
27.411854 -44.71999 4.0004096
27.411854 -44.750145 4.0003233
27.411854 -44.780327 4.0002546
27.411854 -44.810463 4.0001683
27.411854 -44.840626 4.000082
27.411854 -44.870747 3.9999247
27.411854 -44.900761 3.9997401
27.411854 -44.930725 3.9996188
27.411854 -44.960716 3.9994974
27.411854 -44.990734 3.9993758
27.411854 -45.020771 3.9992542
27.411854 -45.05077 3.9991965
27.411856 -45.080933 4.0000305
27.411856 -45.111042 3.9999092
27.411856 -45.140827 3.9995649
27.411856 -45.169949 3.9998999
27.411856 -45.19949 3.9995522
27.411856 -45.229691 3.9994302
27.411856 -45.259914 3.9993083
27.411856 -45.290161 3.9991863
27.411856 -45.320435 3.9990642
27.411858 -45.350929 3.9997041
27.411858 -45.381042 3.9998419
27.411858 -45.410374 3.9997239
27.411858 -45.439724 3.9996059
27.411858 -45.470112 3.9994836
27.411858 -45.500523 3.9993613
27.411858 -45.53083 3.9993591
27.411861 -45.559708 4.0006623
27.411867 -45.589016 4.0036354
27.411875 -45.619141 4.0065565
27.41188 -45.648853 4.0094309
27.411886 -45.675423 4.011951
27.411791 -44.060047 3.9729691
27.411791 -44.090069 3.9728611
27.411789 -44.120113 3.9725254
27.411791 -44.150059 3.9725335
27.411791 -44.180023 3.9725413
27.411789 -44.210075 3.9721167
27.411789 -44.240154 3.9720621
27.411791 -44.270123 3.9720349
27.411791 -44.300117 3.9720428
27.411789 -44.330135 3.9715548
27.411789 -44.360111 3.9715014
27.411789 -44.39011 3.9714482
27.411789 -44.420197 3.9714384
27.411789 -44.450245 3.9712968
27.411789 -44.480053 3.9710481
27.411789 -44.509949 3.9707546
27.411789 -44.540066 3.970701
27.411789 -44.570141 3.9706385
27.411789 -44.600239 3.970567
27.411789 -44.63036 3.9704602
27.411791 -44.660442 3.9703622
27.411789 -44.690414 3.9701126
27.411789 -44.720276 3.9699798
27.411789 -44.750164 3.9698467
27.411789 -44.780071 3.9697137
27.411789 -44.810005 3.9695807
27.411791 -44.839924 3.9703956
27.411791 -44.869968 3.970335
27.411791 -44.899971 3.970202
27.411791 -44.929993 3.9700687
27.411791 -44.960041 3.9699354
27.411791 -44.990112 3.9698021
27.411791 -45.02021 3.9696689
27.411791 -45.050396 3.9696076
27.411793 -45.080486 3.9704237
27.411793 -45.110649 3.9702904
27.411793 -45.140839 3.9701569
27.411793 -45.170986 3.9699597
27.411793 -45.200207 3.9699626
27.411793 -45.229527 3.9697649
27.411793 -45.259808 3.969631
27.411793 -45.290115 3.9694972
27.411793 -45.320446 3.969363
27.411793 -45.350796 3.9692287
27.411793 -45.380306 3.9692242
27.411797 -45.409157 3.9708562
27.411802 -45.43919 3.9736888
27.411808 -45.469288 3.9766061
27.411816 -45.498955 3.9794762
27.411821 -45.524879 3.9819417
27.411726 -44.060013 3.9426656
27.411726 -44.090096 3.9423258
27.411726 -44.120071 3.9422507
27.411726 -44.150009 3.9422209
27.411726 -44.180096 3.9420304
27.411724 -44.210144 3.9417338
27.411724 -44.240086 3.941669
27.411726 -44.27005 3.9416039
27.411724 -44.300102 3.9416001
27.411724 -44.330112 3.9411426
27.411724 -44.360085 3.9410067
27.411724 -44.390076 3.9409416
27.411724 -44.420094 3.9408498
27.411724 -44.450199 3.9407842
27.411724 -44.480263 3.9406478
27.411724 -44.510151 3.9403863
27.411724 -44.539932 3.9402418
27.411724 -44.56987 3.9399798
27.411724 -44.599895 3.9399331
27.411726 -44.629959 3.9407933
27.411726 -44.660046 3.9406433
27.411726 -44.690151 3.9405313
27.411726 -44.720215 3.9403956
27.411726 -44.750229 3.9402456
27.411726 -44.780266 3.940115
27.411726 -44.810329 3.9399552
27.411728 -44.840351 3.9407692
27.411728 -44.870255 3.9406798
27.411728 -44.900181 3.9405446
27.411728 -44.930061 3.940428
27.411728 -44.959827 3.9403679
27.411728 -44.98962 3.9402332
27.411728 -45.019646 3.9399688
27.411728 -45.049824 3.9398232
27.411728 -45.080021 3.9396777
27.411728 -45.110245 3.9395318
27.411728 -45.140495 3.9393861
27.411726 -45.170765 3.9392402
27.411726 -45.200802 3.9388905
27.411728 -45.230022 3.9392345
27.411732 -45.259117 3.9410133
27.411737 -45.289303 3.9439375
27.411745 -45.31934 3.9468455
27.411751 -45.34885 3.9496961
27.411757 -45.373604 3.9520533
27.411659 -44.090057 3.9118891
27.411659 -44.119965 3.9118125
27.411661 -44.14996 3.9117882
27.411659 -44.180042 3.9113722
27.411659 -44.210083 3.911232
27.411659 -44.240082 3.911155
27.411659 -44.270107 3.911078
27.411659 -44.300087 3.9109387
27.411659 -44.330029 3.9106827
27.411659 -44.360058 3.9103906
27.411659 -44.39011 3.9103222
27.411661 -44.419865 3.9107931
27.411661 -44.450153 3.9110947
27.411661 -44.480225 3.9109757
27.411661 -44.510323 3.9108567
27.411661 -44.540375 3.910666
27.411661 -44.570309 3.9104462
27.411661 -44.600262 3.910362
27.411663 -44.630146 3.9111571
27.411663 -44.660076 3.911001
27.411663 -44.690029 3.9108443
27.411663 -44.720005 3.9106877
27.411663 -44.750008 3.910531
27.411663 -44.780029 3.9103742
27.411661 -44.810078 3.9102173
27.411661 -44.840149 3.9100599
27.411661 -44.870243 3.9099028
27.411661 -44.900364 3.9097455
27.411661 -44.930508 3.9095881
27.411661 -44.96067 3.9094307
27.411661 -44.990734 3.9091535
27.411661 -45.020477 3.9089775
27.411661 -45.04982 3.9092307
27.411663 -45.079445 3.9096959
27.411667 -45.109241 3.9110568
27.411673 -45.139381 3.9139726
27.411678 -45.169353 3.9168692
27.411686 -45.198708 3.9196956
27.41169 -45.222824 3.921952
27.411594 -44.090019 3.8813679
27.411594 -44.119987 3.8812792
27.411594 -44.15004 3.8810015
27.411594 -44.180115 3.880724
27.411594 -44.210087 3.880635
27.411596 -44.239899 3.8813746
27.411596 -44.270058 3.8814204
27.411596 -44.300121 3.8812752
27.411596 -44.330067 3.8810728
27.411596 -44.359962 3.8807778
27.411596 -44.389957 3.8805749
27.411596 -44.420231 3.8810978
27.411598 -44.45002 3.8813138
27.411598 -44.480068 3.8811808
27.411598 -44.510071 3.881021
27.411598 -44.5401 3.880861
27.411598 -44.570152 3.8807011
27.411596 -44.600227 3.8805408
27.411596 -44.63026 3.8803446
27.411596 -44.660248 3.8801758
27.411596 -44.690262 3.8800068
27.411596 -44.720299 3.879838
27.411596 -44.750294 3.8796415
27.411596 -44.780243 3.879482
27.411596 -44.809875 3.8799317
27.411598 -44.839958 3.8802366
27.411598 -44.869747 3.8801644
27.411598 -44.899639 3.8799262
27.411598 -44.929768 3.8796928
27.411602 -44.959415 3.8813174
27.411608 -44.989521 3.8842278
27.411613 -45.019543 3.8870661
27.411621 -45.048653 3.8897133
27.411629 -45.076088 3.8932488
27.411531 -44.089958 3.8517025
27.411531 -44.12001 3.8515582
27.411531 -44.150082 3.8511839
27.411531 -44.180038 3.8510413
27.411531 -44.210022 3.850899
27.411531 -44.240135 3.8516448
27.411531 -44.270027 3.8516285
27.411533 -44.30006 3.8514833
27.411533 -44.330112 3.8513386
27.411531 -44.360058 3.8510399
27.411531 -44.389961 3.8507957
27.411531 -44.419956 3.8506238
27.411531 -44.449974 3.8504519
27.411531 -44.479946 3.8503165
27.411531 -44.509945 3.8500991
27.411531 -44.539967 3.8499541
27.411531 -44.569656 3.8503084
27.411533 -44.599888 3.8506262
27.411533 -44.629841 3.8504903
27.411533 -44.659744 3.8503203
27.411533 -44.689671 3.8501503
27.411533 -44.719696 3.8499053
27.411531 -44.749813 3.8497236
27.411531 -44.779953 3.8495424
27.411537 -44.809959 3.8520193
27.411545 -44.839825 3.8553283
27.411552 -44.869827 3.8582275
27.411558 -44.898571 3.861027
27.411562 -44.923092 3.8633053
27.411469 -44.089909 3.821903
27.411469 -44.120052 3.8216007
27.411467 -44.150089 3.8213799
27.411467 -44.180019 3.8212323
27.411467 -44.209976 3.8210487
27.411467 -44.240017 3.8208916
27.411467 -44.27002 3.8206983
27.411467 -44.300045 3.8205595
27.411467 -44.330093 3.820339
27.411469 -44.360027 3.821043
27.411469 -44.390121 3.8209324
27.411469 -44.42004 3.82074
27.411467 -44.449982 3.8205476
27.411467 -44.47995 3.8203549
27.411467 -44.509937 3.8201623
27.411467 -44.539951 3.8199692
27.411469 -44.570271 3.8203447
27.411469 -44.600094 3.8206189
27.411469 -44.630116 3.8204913
27.411474 -44.659786 3.8224525
27.41148 -44.689857 3.8253539
27.411486 -44.719471 3.8281386
27.411491 -44.748116 3.8310733
27.411497 -44.772694 3.8333583
27.411402 -44.059883 3.7910562
27.411402 -44.090065 3.7908494
27.411402 -44.120075 3.7906346
27.411404 -44.149899 3.7913957
27.411404 -44.179962 3.7912683
27.411404 -44.209988 3.7910874
27.411402 -44.239967 3.7908924
27.411402 -44.26997 3.7906971
27.411402 -44.299995 3.7905016
27.411402 -44.330048 3.7903061
27.411404 -44.360188 3.7910097
27.411404 -44.390083 3.790889
27.411404 -44.420124 3.7907391
27.411404 -44.450191 3.7904789
27.411404 -44.480061 3.7904718
27.411407 -44.509651 3.7926483
27.411415 -44.539486 3.7955945
27.411421 -44.568951 3.7984512
27.411427 -44.597473 3.801239
27.411432 -44.621895 3.8033552
27.411337 -44.060028 3.7609589
27.411337 -44.090019 3.7607951
27.411337 -44.119961 3.7605884
27.411339 -44.150005 3.7613499
27.411339 -44.179924 3.7612071
27.411339 -44.20993 3.7609994
27.411339 -44.239956 3.7607915
27.411339 -44.269939 3.7605562
27.411339 -44.29995 3.7603669
27.411339 -44.329788 3.7603874
27.411343 -44.359406 3.7627566
27.41135 -44.389183 3.7656455
27.411356 -44.418568 3.7685153
27.411362 -44.447182 3.7712011
27.411367 -44.47031 3.773241
27.411268 -44.013702 3.7288253
27.411274 -44.029972 3.7310853
27.411274 -44.059917 3.7308655
27.411272 -44.089886 3.7306457
27.411274 -44.119633 3.7310331
27.411274 -44.14991 3.7312446
27.411274 -44.179893 3.7310903
27.41128 -44.209347 3.7330101
27.411285 -44.239124 3.735703
27.411291 -44.268551 3.7385406
27.411297 -44.29723 3.7412503
27.411301 -44.319736 3.7432263
27.411205 -44.012463 3.699532
27.411209 -44.029774 3.7009866
27.411213 -44.05917 3.7030411
27.411221 -44.088909 3.7059019
27.411228 -44.118965 3.7094009
27.411234 -44.147488 3.7124498
27.41124 -44.172043 3.7147682
27.411173 -44.01128 3.6838191
27.411175 -44.021236 3.6846619
27.412218 -46.466785 4.1646643
27.412224 -46.492001 4.1669297
27.412231 -46.521641 4.1698627
27.412237 -46.551414 4.172997
27.412243 -46.581177 4.1756964
27.412247 -46.599632 4.17695
27.412153 -46.315792 4.1345048
27.412159 -46.341866 4.1369972
27.412165 -46.371723 4.1398988
27.412172 -46.401466 4.1430283
27.412178 -46.431118 4.1456685
27.412182 -46.460541 4.1475611
27.412182 -46.490543 4.1474891
27.412182 -46.5205 4.1473336
27.412182 -46.550549 4.1474295
27.412182 -46.580624 4.1471996
27.412088 -46.164494 4.1046138
27.412094 -46.191803 4.1072226
27.4121 -46.221634 4.109972
27.412107 -46.251469 4.1130495
27.412113 -46.281097 4.1156859
27.412117 -46.31052 4.1173162
27.412117 -46.340534 4.1173258
27.412117 -46.370502 4.116981
27.412117 -46.400497 4.11729
27.412117 -46.43058 4.1168799
27.412117 -46.460548 4.1170778
27.412117 -46.490547 4.1167879
27.412117 -46.520561 4.1168642
27.412117 -46.550602 4.1166959
27.412117 -46.580593 4.1166782
27.412022 -46.013752 4.074532
27.412029 -46.04166 4.0772176
27.412035 -46.071606 4.0801234
27.412041 -46.101368 4.0832601
27.412048 -46.130932 4.0858436
27.41205 -46.160484 4.0870509
27.41205 -46.190582 4.0872169
27.41205 -46.220425 4.0866723
27.412052 -46.250431 4.0870814
27.41205 -46.280529 4.0867348
27.412052 -46.310322 4.0873275
27.412054 -46.340538 4.0877357
27.412052 -46.370571 4.0872893
27.412054 -46.400558 4.0876918
27.412052 -46.430569 4.0871782
27.412054 -46.460598 4.0874505
27.412052 -46.490582 4.0870113
27.412054 -46.520584 4.0872798
27.412054 -46.550613 4.0868406
27.412054 -46.580589 4.0871153
27.411961 -45.866314 4.0457826
27.411964 -45.891743 4.0482535
27.411972 -45.921539 4.0511489
27.411978 -45.951305 4.0542679
27.411983 -45.980854 4.0568938
27.411987 -46.010403 4.0578003
27.411987 -46.040546 4.0580611
27.411987 -46.070328 4.0575476
27.411987 -46.100437 4.0576262
27.411987 -46.130573 4.0577054
27.411987 -46.160427 4.0571909
27.411987 -46.190464 4.0575595
27.411987 -46.22044 4.0571313
27.411987 -46.250446 4.0571852
27.411987 -46.280468 4.0570779
27.411989 -46.310699 4.0575323
27.411989 -46.340569 4.058073
27.411989 -46.370514 4.0575795
27.411989 -46.400482 4.0578794
27.411989 -46.430477 4.0573854
27.411989 -46.460491 4.0576859
27.411989 -46.490463 4.0572481
27.411989 -46.520451 4.0574265
27.411989 -46.550468 4.0571117
27.411896 -45.715275 4.0159965
27.411901 -45.741867 4.018518
27.411907 -45.771626 4.0213952
27.411913 -45.80146 4.024497
27.411919 -45.83086 4.0268755
27.411922 -45.860245 4.0286112
27.411924 -45.890572 4.0287871
27.411922 -45.920429 4.0285125
27.411922 -45.950314 4.0282378
27.411924 -45.980507 4.0285282
27.411922 -46.010365 4.0280728
27.411922 -46.040459 4.0279579
27.411924 -46.070583 4.0282335
27.411922 -46.100372 4.0275965
27.411924 -46.130405 4.0279856
27.411922 -46.160381 4.0275292
27.411924 -46.190388 4.0275812
27.411924 -46.220486 4.0274911
27.411922 -46.250465 4.0272031
27.411924 -46.280472 4.0273399
27.411922 -46.310497 4.0269098
27.411924 -46.340481 4.0271807
27.411922 -46.370419 4.0267487
27.411924 -46.400444 4.0269055
27.411922 -46.430496 4.0265312
27.411924 -46.460503 4.0266695
27.411922 -46.490463 4.0264182
27.411924 -46.520512 4.0263376
27.411922 -46.550518 4.0262775
27.411829 -45.56459 3.9859395
27.411835 -45.591793 3.9885271
27.411842 -45.621574 3.9914043
27.411848 -45.651493 3.9944787
27.411854 -45.680752 3.99699
27.411858 -45.709995 3.9985189
27.411858 -45.740597 3.9983959
27.411858 -45.77055 3.9985144
27.411858 -45.800159 3.9979227
27.411858 -45.830502 3.9980345
27.411858 -45.860588 3.9981706
27.411858 -45.89027 3.9975402
27.411858 -45.920479 3.9977927
27.411858 -45.950493 3.9976375
27.411858 -45.980385 3.9972265
27.411858 -46.01046 3.9975755
27.411858 -46.040257 3.9969246
27.411858 -46.070374 3.9972372
27.411858 -46.100433 3.9969487
27.41186 -46.130409 3.9976234
27.41186 -46.160534 3.9979722
27.41186 -46.190449 3.9973943
27.41186 -46.220478 3.9977462
27.41186 -46.250443 3.9971373
27.411861 -46.280514 3.9975097
27.411858 -46.310524 3.9968901
27.41186 -46.340492 3.9972656
27.41186 -46.37048 3.9967208
27.41186 -46.400494 3.9969432
27.41186 -46.430454 3.9965975
27.41186 -46.46051 3.9965744
27.41186 -46.490517 3.9964442
27.41186 -46.52055 3.9961905
27.41186 -46.550598 3.9963067
27.411764 -45.41301 3.9559348
27.41177 -45.441635 3.958519
27.411777 -45.471466 3.9614022
27.411783 -45.50156 3.9643857
27.411789 -45.530804 3.9671011
27.411793 -45.559872 3.9683046
27.411791 -45.590416 3.9681695
27.411793 -45.620586 3.9682903
27.411791 -45.650131 3.9676478
27.411793 -45.680145 3.9677727
27.411795 -45.710495 3.968641
27.411795 -45.740318 3.968482
27.411793 -45.770126 3.9683437
27.411795 -45.800549 3.9684384
27.411793 -45.830242 3.9679716
27.411795 -45.860199 3.9680107
27.411795 -45.890472 3.9681268
27.411793 -45.920231 3.9674966
27.411793 -45.950409 3.9677327
27.411793 -45.980373 3.9674809
27.411793 -46.010361 3.9672296
27.411793 -46.040531 3.9674621
27.411793 -46.070412 3.9668405
27.411793 -46.10041 3.9672022
27.411795 -46.130383 3.9675202
27.411797 -46.160351 3.9679801
27.411795 -46.190395 3.967401
27.411797 -46.220406 3.9676509
27.411795 -46.250431 3.9671371
27.411797 -46.280415 3.9673977
27.411795 -46.310417 3.9667969
27.411797 -46.340446 3.9672012
27.411795 -46.370426 3.9666569
27.411795 -46.400433 3.9667842
27.411795 -46.430458 3.9665086
27.411795 -46.46051 3.9663668
27.411797 -46.490513 3.9663706
27.411795 -46.520405 3.965997
27.411795 -46.550453 3.9661255
27.411695 -45.243446 3.924473
27.411699 -45.263092 3.9259996
27.411705 -45.291504 3.9287276
27.411711 -45.321381 3.931613
27.411718 -45.351345 3.9347231
27.411726 -45.38076 3.9383528
27.411728 -45.409729 3.9391198
27.411728 -45.440212 3.9389734
27.411728 -45.470718 3.9388266
27.411728 -45.500233 3.9386847
27.411728 -45.529766 3.9385428
27.411728 -45.560345 3.9383957
27.411728 -45.590591 3.9384773
27.411728 -45.620174 3.9378765
27.411728 -45.650177 3.9379637
27.411728 -45.680565 3.9380188
27.41173 -45.710331 3.9383576
27.41173 -45.740192 3.938566
27.41173 -45.770466 3.9386868
27.41173 -45.800186 3.9380109
27.41173 -45.830437 3.9381332
27.41173 -45.860504 3.9382024
27.411728 -45.890301 3.9376397
27.41173 -45.920422 3.9379685
27.411728 -45.950264 3.9372907
27.41173 -45.980358 3.9376214
27.411728 -46.010323 3.9371257
27.41173 -46.040321 3.9372306
27.41173 -46.070335 3.9369345
27.41173 -46.100307 3.9368868
27.41173 -46.130161 3.9374783
27.41173 -46.160404 3.9375472
27.411732 -46.190445 3.9374957
27.411732 -46.220432 3.9373062
27.41173 -46.250443 3.9371157
27.411732 -46.280403 3.9371271
27.41173 -46.310387 3.9366422
27.41173 -46.340393 3.9369843
27.41173 -46.370495 3.9364026
27.41173 -46.400475 3.9365854
27.41173 -46.430401 3.9363282
27.41173 -46.460426 3.9359927
27.411732 -46.490471 3.9361968
27.41173 -46.520393 3.9358301
27.41173 -46.550411 3.9356453
27.41173 -46.580452 3.9357102
27.411636 -45.115368 3.8973215
27.411642 -45.141857 3.8998222
27.411648 -45.171501 3.9026766
27.411655 -45.20158 3.9055793
27.411661 -45.230644 3.9082894
27.411663 -45.259594 3.9089031
27.411663 -45.290016 3.9087446
27.411663 -45.320465 3.908586
27.411663 -45.351109 3.9086447
27.411665 -45.380413 3.909308
27.411665 -45.409912 3.9091544
27.411663 -45.440453 3.9089959
27.411665 -45.47049 3.909107
27.411663 -45.500031 3.9084198
27.411663 -45.530178 3.9085295
27.411665 -45.560619 3.9085395
27.411663 -45.59024 3.908042
27.411663 -45.620117 3.9080622
27.411665 -45.650494 3.9081402
27.411663 -45.68018 3.9075084
27.411663 -45.710262 3.9075935
27.411665 -45.740273 3.908493
27.411665 -45.770191 3.9080782
27.411665 -45.800442 3.9082861
27.411665 -45.830254 3.9078853
27.411665 -45.860249 3.907856
27.411665 -45.890419 3.907908
27.411665 -45.920296 3.9073424
27.411665 -45.950367 3.9076364
27.411663 -45.980289 3.9069884
27.411665 -46.010338 3.9073298
27.411665 -46.040306 3.9066706
27.411665 -46.070324 3.9070191
27.411663 -46.100342 3.9063594
27.411667 -46.130531 3.9074993
27.411665 -46.160381 3.9070761
27.411667 -46.190414 3.9074507
27.411665 -46.22039 3.9068997
27.411667 -46.250397 3.9069664
27.411667 -46.280422 3.9067242
27.411665 -46.310406 3.9064229
27.411667 -46.34034 3.9066179
27.411665 -46.370369 3.9061136
27.411667 -46.400173 3.9065423
27.411667 -46.430412 3.9070241
27.411667 -46.460419 3.9066083
27.411667 -46.490444 3.9069233
27.411667 -46.52042 3.9065337
27.411667 -46.550423 3.9062798
27.411667 -46.580517 3.906323
27.411667 -46.610489 3.906085
27.41165 -46.625965 3.8975797
27.411572 -44.963902 3.8673625
27.411577 -44.991615 3.8700106
27.411583 -45.021297 3.8727956
27.411591 -45.051498 3.8755813
27.411596 -45.080853 3.8782196
27.4116 -45.109653 3.8798854
27.4116 -45.139824 3.8795485
27.411598 -45.170212 3.8793786
27.411598 -45.200623 3.8792081
27.411598 -45.230042 3.8790433
27.411598 -45.259487 3.8788784
27.411598 -45.28997 3.8787076
27.411598 -45.320477 3.8785369
27.411598 -45.350204 3.8785458
27.411598 -45.379715 3.8780367
27.4116 -45.410095 3.8790748
27.4116 -45.440697 3.8789039
27.4116 -45.470299 3.8787384
27.4116 -45.499924 3.8785729
27.4116 -45.530594 3.8784015
27.4116 -45.560268 3.8782358
27.4116 -45.589962 3.8780699
27.4116 -45.620564 3.8780191
27.411598 -45.650295 3.8776064
27.4116 -45.68021 3.8775656
27.411598 -45.710377 3.8776307
27.4116 -45.740337 3.877809
27.4116 -45.770374 3.8783131
