# .PCD v0.7 - Point Cloud Data file format
VERSION 0.7
FIELDS x y z rgb
SIZE 4 4 4 4
TYPE F F F U
COUNT 1 1 1 1
WIDTH 1231
HEIGHT 1
VIEWPOINT 0 0 0 1 0 0 0
POINTS 1231
DATA ascii
-2.967 0.74866438 1.7500019 5658200
-2.967 0.75277841 1.7500019 3815741
-2.9710002 0.75645649 1.7509449 3618362
-2.9749999 0.76015508 1.7518878 3224377
-2.9710002 0.76470506 1.7509449 3158584
-2.9710002 0.76882935 1.7509449 2829619
-2.9749999 0.77255881 1.7518878 3750721
-2.9749999 0.77669334 1.7518878 3421756
-2.9749999 0.78082788 1.7518878 3487549
-2.9749999 0.78496248 1.7518878 3422010
-2.9790001 0.7887432 1.7528309 3618619
-2.9790001 0.79288805 1.7528309 3750205
-2.983 0.79669958 1.7537738 3618619
-2.983 0.80085468 1.7537738 3355445
-2.983 0.80500978 1.7537738 3618617
-2.983 0.80916488 1.7537738 3552824
-2.983 0.81331998 1.7537738 3619389
-2.983 0.81747508 1.7537738 3816514
-2.983 0.82163018 1.7537738 3815744
-2.9790001 0.82604671 1.7528309 4078916
-2.9790001 0.83019149 1.7528309 4276295
-2.9790001 0.83433634 1.7528309 4407881
-2.9790001 0.83848119 1.7528309 4211274
-2.9790001 0.84262598 1.7528309 4277067
-2.9790001 0.84677082 1.7528309 4079686
-2.983 0.85071582 1.7537738 4145479
-2.983 0.85487092 1.7537738 3488832
-2.9790001 0.85920531 1.7528309 3292223
-2.9790001 0.86335015 1.7528309 3489602
-2.9790001 0.867495 1.7528309 3621188
-2.983 0.87149131 1.7537738 3950666
-2.9790001 0.87578464 1.7528309 4344913
-2.9790001 0.87992948 1.7528309 4476499
-2.9790001 0.88407433 1.7528309 4608085
-2.9749999 0.88832659 1.7518878 4937050
-2.9749999 0.89659572 1.7518878 4870487
-2.9749999 0.90073031 1.7518878 5133146
-2.9749999 0.90486485 1.7518878 5133146
-2.9879999 0.94216049 1.7549525 5067353
-2.9879999 0.9463284 1.7549525 5133146
-2.9879999 0.95049632 1.7549525 5462626
-2.9920001 0.95472109 1.7558955 5397349
-2.9920001 0.95889926 1.7558955 5923695
-2.9920001 0.96307749 1.7558955 4081491
-2.9920001 0.96725565 1.7558955 4080973
-2.9960001 0.97153175 1.7568386 4212044
-2.9960001 0.97572017 1.7568386 5527904
-3 0.98002702 1.7577815 9080726
-3 0.98422575 1.7577815 10200490
-3 0.98842448 1.7577815 10397869
-3 0.99262321 1.7577815 10595248
-3 0.99682194 1.7577815 11383992
-3.0050001 1.0012329 1.7589602 11647164
-3.0050001 1.0054444 1.7589602 11844543
-3.0050001 1.009656 1.7589602 11910336
-3.0050001 1.0138675 1.7589602 11844543
-3.0050001 1.018079 1.7589602 11581371
-3 1.0220143 1.7577815 11713727
-3 1.026213 1.7577815 11713211
-3 1.0304117 1.7577815 11647416
-2.9960001 1.0343586 1.7568386 11713209
-2.9960001 1.038547 1.7568386 11844795
-2.9920001 1.0424632 1.7558955 11647416
-2.9920001 1.0466413 1.7558955 11647416
-2.9960001 1.0511125 1.7568386 11450037
-2.9960001 1.055301 1.7568386 11317936
-2.9960001 1.0594894 1.7568386 11252143
-3 1.0640016 1.7577815 4078913
-3 1.0682003 1.7577815 4539987
-3.0050001 1.0770409 1.7589602 4213075
-3.0090001 1.0816172 1.7599032 11515578
-3.0090001 1.085839 1.7599032 11581108
-3.0310001 1.1734676 1.7650896 4277069
-3.027 1.1771553 1.7641467 4540241
-3.0310001 1.1820241 1.7650896 6580594
-3.0310001 1.1863024 1.7650896 11712696
-3.0310001 1.1905807 1.7650896 11842740
-3.0310001 1.194859 1.7650896 11908533
-3.0310001 1.1991373 1.7650896 11974326
-3.0310001 1.2034156 1.7650896 11909303
-3.0310001 1.2076938 1.7650896 11843510
-3.0310001 1.2119721 1.7650896 11711924
-3.0310001 1.2162504 1.7650896 11711924
-3.0450001 1.3912097 1.7683902 8815757
-3.0310001 1.4002168 1.7650896 14936555
-3.0310001 1.4044951 1.7650896 14739689
-3.027 1.4076284 1.7641467 14805482
-3.027 1.4118965 1.7641467 14937068
-3.027 1.4161644 1.7641467 15593713
-3.0310001 1.4216082 1.7650896 16645629
-3.049 1.4528461 1.7693331 13422025
-3.049 1.4571706 1.7693331 12565689
-3.0450001 1.4602373 1.7683902 11777717
-3.04 1.4629662 1.7672114 11382959
-3.036 1.4659891 1.7662684 11448752
-3.036 1.4702802 1.7662684 11382959
-3.0310001 1.4729476 1.7650896 11513775
-3.0310001 1.477226 1.7650896 11382189
-2.983 0.38534498 1.7496188 11118760
-2.9879999 0.38782591 1.7507846 11053224
-2.9879999 0.39199388 1.7507846 11119017
-2.9920001 0.39484298 1.7517173 11119017
-2.9920001 0.39902121 1.7517173 11119270
-2.9920001 0.40319937 1.7517173 11119270
-2.9920001 0.40737754 1.7517173 11053477
-2.9749999 0.42938989 1.7477533 11119270
-2.9710002 0.43476111 1.7468206 11053477
-2.9710002 0.43888539 1.7468206 10987684
-2.9710002 0.4430097 1.7468206 10461338
-2.9749999 0.44592813 1.7477533 9409169
-2.9749999 0.45006269 1.7477533 3355965
-2.9790001 0.45301187 1.748686 3224379
-2.983 0.45598161 1.7496188 3094076
-2.9879999 0.45868072 1.7507846 4936019
-2.9879999 0.46284866 1.7507846 10856093
-2.9920001 0.46587229 1.7517173 11053472
-2.9920001 0.47005048 1.7517173 11316642
-2.9960001 0.47310489 1.75265 11185056
-2.9960001 0.47729337 1.75265 11644837
-2.9790001 0.50274986 1.748686 11448230
-2.9790001 0.50689471 1.748686 11382437
-2.9790001 0.5110395 1.748686 11316644
-2.9790001 0.51518434 1.748686 11250856
-2.9749999 0.52035028 1.7477533 11382442
-2.9749999 0.52448487 1.7477533 11382189
-2.9749999 0.52861947 1.7477533 11447982
-2.9790001 0.53176367 1.748686 11316396
-2.983 0.53492844 1.7496188 11381932
-2.983 0.5390836 1.7496188 11184806
-2.9790001 0.54419816 1.748686 10527903
-2.9790001 0.548343 1.748686 7501425
-2.9749999 0.55342686 1.7477533 3094846
-2.9790001 0.55663264 1.748686 3028283
-2.9790001 0.56077749 1.748686 3683131
-2.9790001 0.56492233 1.748686 7828090
-2.983 0.56816924 1.7496188 11182753
-2.983 0.57232434 1.7496188 11512488
-2.983 0.57647943 1.7496188 11315620
-2.983 0.58063459 1.7496188 11447206
-2.9879999 0.58371854 1.7507846 11447206
-2.9879999 0.58788651 1.7507846 11447206
-2.9879999 0.59205443 1.7507846 11316390
-2.9879999 0.5962224 1.7507846 11119013
-2.9879999 0.60039032 1.7507846 11184806
-2.9879999 0.60455823 1.7507846 11053477
-2.9879999 0.60872614 1.7507846 11119270
-2.9879999 0.61289406 1.7507846 10987684
-2.983 0.61803043 1.7496188 11119270
-2.9879999 0.62122995 1.7507846 10987684
-2.983 0.62634063 1.7496188 10987684
-2.9790001 0.63123965 1.748686 10856098
-2.9790001 0.63538444 1.748686 10790305
-2.9749999 0.64025271 1.7477533 10790305
-2.9710002 0.64510036 1.7468206 10658466
-2.9710002 0.64922464 1.7468206 10461087
-2.967 0.65404159 1.7458878 10395547
-2.967 0.65815562 1.7458878 7763317
-2.967 0.66226965 1.7458878 3486772
-2.967 0.66638368 1.7458878 3158068
-2.967 0.67049772 1.7458878 2961205
-2.9630001 0.67525303 1.7449551 5988705
-2.9630001 0.67935681 1.7449551 9936788
-2.967 0.68283981 1.7458878 10134167
-2.9630001 0.68756431 1.7449551 10330006
-2.9630001 0.69166809 1.7449551 10132373
-2.9590001 0.69636178 1.7440224 10395545
-2.9590001 0.70045531 1.7440224 10395545
-2.9590001 0.70454878 1.7440224 10395547
-2.9590001 0.7086423 1.7440224 10461340
-2.9590001 0.71273583 1.7440224 10329754
-2.9590001 0.7168293 1.7440224 10395547
-2.9590001 0.72092283 1.7440224 10329754
-2.9590001 0.7250163 1.7440224 10000789
-2.9630001 0.72860199 1.7449551 10198168
-2.9630001 0.73270577 1.7449551 10132375
-2.967 0.73632228 1.7458878 10658719
-2.967 0.74043632 1.7458878 10856098
-2.967 0.74455035 1.7458878 10592926
-2.967 0.74866438 1.7458878 10329754
-2.9710002 0.75233215 1.7468206 7039855
-2.9710002 0.75645649 1.7468206 3158068
-2.9710002 0.76058078 1.7468206 3224631
-2.9710002 0.76470506 1.7468206 3026998
-2.9710002 0.76882935 1.7468206 4211272
-2.9710002 0.77295363 1.7468206 9408919
-2.9710002 0.77707797 1.7468206 9803677
-2.9749999 0.78082788 1.7477533 9474712
-2.9749999 0.78496248 1.7477533 9474964
-2.9790001 0.7887432 1.748686 8947848
-2.9790001 0.79288805 1.748686 9605778
-2.9790001 0.79703283 1.748686 9342606
-2.983 0.80085468 1.7496188 8948101
-2.983 0.80500978 1.7496188 8289661
-2.983 0.80916488 1.7496188 7894903
-2.983 0.81331998 1.7496188 7631988
-2.983 0.81747508 1.7496188 7960955
-2.983 0.82163018 1.7496188 7697783
-2.9790001 0.82604671 1.748686 6710888
-2.9790001 0.83019149 1.748686 6908267
-2.9790001 0.83433634 1.748686 5987165
-2.9790001 0.83848119 1.748686 5264212
-2.9749999 0.84284639 1.7477533 4803661
-2.9790001 0.84677082 1.748686 4013375
-2.9790001 0.85091567 1.748686 3750203
-2.9790001 0.85506052 1.748686 3488319
-2.9790001 0.85920531 1.748686 3160637
-2.9790001 0.86335015 1.748686 3489602
-2.9790001 0.867495 1.748686 3489602
-2.9790001 0.87163985 1.748686 3290940
-2.9749999 0.87592292 1.7477533 3947330
-2.9749999 0.88005745 1.7477533 4407883
-2.9710002 0.88430977 1.7468206 4473676
-2.9710002 0.88843405 1.7468206 4473676
-2.9710002 0.89255834 1.7468206 4540239
-2.9710002 0.89668262 1.7468206 4606030
-2.9710002 0.90080696 1.7468206 4737616
-2.9710002 0.90493125 1.7468206 4869202
-2.9710002 0.90905553 1.7468206 4934995
-2.9749999 0.91313398 1.7477533 5066581
-2.9749999 0.91726857 1.7477533 5132374
-2.9790001 0.92552263 1.748686 4934995
-2.983 0.94212794 1.7496188 4804181
-2.9879999 0.9463284 1.7507846 4870487
-2.9879999 0.95049632 1.7507846 4936280
-2.9879999 0.95466429 1.7507846 4739673
-2.9879999 0.9588322 1.7507846 4410706
-2.9920001 0.96307749 1.7517173 4081741
-2.9920001 0.96725565 1.7517173 3818569
-2.9960001 0.97153175 1.75265 3884362
-2.9960001 0.97572017 1.75265 4541522
-3 0.98002702 1.7535827 4607315
-3 0.98422575 1.7535827 5133146
-3 0.98842448 1.7535827 5199452
-3.0050001 0.99280971 1.7547486 5199200
-3.0050001 0.99702132 1.7547486 5134690
-3.0050001 1.0012329 1.7547486 4937311
-3.0050001 1.0054444 1.7547486 4937311
-3.0050001 1.009656 1.7547486 5199970
-3.0050001 1.0138675 1.7547486 5002591
-3.0050001 1.018079 1.7547486 5002591
-3 1.0220143 1.7535827 5332069
-3 1.026213 1.7535827 5266276
-2.9960001 1.0301702 1.75265 4871259
-2.9960001 1.0343586 1.75265 5266015
-2.9920001 1.038285 1.7517173 4871257
-2.9920001 1.0424632 1.7517173 4608085
-2.9920001 1.0466413 1.7517173 4739673
-2.9920001 1.0508195 1.7517173 4805466
-2.9920001 1.0549977 1.7517173 5331040
-2.9960001 1.0594894 1.75265 4936282
-2.9960001 1.0636778 1.75265 4671575
-3 1.0682003 1.7535827 4540241
-3 1.072399 1.7535827 4476499
-3.0050001 1.0770409 1.7547486 4279122
-3.0090001 1.0816172 1.7556814 11780035
-3.0090001 1.085839 1.7556814 11648699
-3.0090001 1.0900609 1.7556814 11910588
-3.027 1.1728872 1.7598786 4277067
-3.027 1.1771553 1.7598786 4540239
-3.027 1.1814233 1.7598786 6449006
-3.0310001 1.1863024 1.7608113 11909305
-3.0310001 1.1905807 1.7608113 11842740
-3.0310001 1.194859 1.7608113 11908533
-3.027 1.1984954 1.7598786 11843510
-3.0310001 1.2034156 1.7608113 11843510
-3.0310001 1.2076938 1.7608113 11646901
-3.0310001 1.2119721 1.7608113 11777717
-3.027 1.2155675 1.7598786 11843510
-3.04 1.2995136 1.76291 11909303
-3.04 1.3038149 1.76291 11909303
-3.0450001 1.3868955 1.7640759 8683653
-3.0450001 1.3912097 1.7640759 9209997
-3.04 1.3941441 1.76291 14079445
-3.036 1.3973312 1.7619772 12632256
-3.0310001 1.4002168 1.7608113 14935781
-3.027 1.4076284 1.7598786 12171958
-3.027 1.4118965 1.7598786 12106682
-3.0450001 1.4429803 1.7640759 16184302
-3.049 1.4485216 1.7650086 13815756
-3.0450001 1.4516088 1.7640759 14671835
-3.0450001 1.455923 1.7640759 12433850
-3.04 1.4586649 1.76291 11842742
-3.036 1.4616981 1.7619772 11382961
-3.036 1.4659891 1.7619772 11448752
-3.036 1.4702802 1.7619772 11448752
-3.0310001 1.4729476 1.7608113 11448235
-3.027 1.4759167 1.7598786 11316649
-2.983 0.38534498 1.7454636 11249829
-2.9879999 0.38782591 1.7466166 11315622
-2.9920001 0.39066482 1.747539 11249829
-2.9920001 0.39484298 1.747539 11184806
-2.9920001 0.39902121 1.747539 11184806
-2.9920001 0.40319937 1.747539 11382185
-2.9920001 0.40737754 1.747539 11316392
-2.9749999 0.42938989 1.7436187 11382185
-2.9710002 0.43476111 1.7426963 11316392
-2.9710002 0.43888539 1.7426963 11053220
-2.9710002 0.4430097 1.7426963 10790305
-2.9749999 0.44592813 1.7436187 9211022
-2.9749999 0.45006269 1.7436187 3552574
-2.9790001 0.45301187 1.7445412 3289402
-2.983 0.45598161 1.7454636 3620420
-2.9879999 0.45868072 1.7466166 4672593
-2.9920001 0.46169412 1.747539 10986657
-2.9920001 0.46587229 1.747539 11118243
-2.9920001 0.47005048 1.747539 11447206
-2.9960001 0.47310489 1.7484616 11578279
-2.9749999 0.50381207 1.7436187 11382442
-2.9749999 0.50794661 1.7436187 11316649
-2.9790001 0.5110395 1.7445412 11316649
-2.9790001 0.51518434 1.7445412 11382442
-2.9790001 0.51932919 1.7445412 11448235
-2.9749999 0.52448487 1.7436187 11316649
-2.9790001 0.52761889 1.7445412 11448235
-2.9790001 0.53176367 1.7445412 11579564
-2.9790001 0.53590846 1.7445412 11644587
-2.9790001 0.54005337 1.7445412 11382185
-2.9790001 0.54419816 1.7445412 10594466
-2.9749999 0.54929227 1.7436187 7107437
-2.9749999 0.55342686 1.7436187 3358018
-2.9790001 0.55663264 1.7445412 3094076
-2.9790001 0.56077749 1.7445412 3748924
-2.9790001 0.56492233 1.7445412 7893883
-2.9790001 0.56906712 1.7445412 11052197
-2.983 0.57232434 1.7454636 11513001
-2.983 0.57647943 1.7454636 11512999
-2.983 0.58063459 1.7454636 11512999
-2.9879999 0.58371854 1.7466166 11447206
-2.9879999 0.58788651 1.7466166 11447976
-2.9920001 0.59121811 1.747539 11447976
-2.9879999 0.5962224 1.7466166 11382183
-2.9879999 0.60039032 1.7466166 11316390
-2.9879999 0.60455823 1.7466166 11184806
-2.9879999 0.60872614 1.7466166 11250856
-2.9879999 0.61289406 1.7466166 11119270
-2.9879999 0.61706197 1.7466166 11250603
-2.9879999 0.62122995 1.7466166 11053224
-2.9879999 0.62539786 1.7466166 11381932
-2.9790001 0.63123965 1.7445412 11316392
-2.9790001 0.63538444 1.7445412 10987427
-2.9749999 0.64025271 1.7436187 11053224
-2.9710002 0.64510036 1.7426963 10987431
-2.9710002 0.64922464 1.7426963 10790305
-2.967 0.65404159 1.7417738 10592669
-2.9710002 0.65747327 1.7426963 7894135
-2.967 0.66226965 1.7417738 3814969
-2.967 0.66638368 1.7417738 3158068
-2.967 0.67049772 1.7417738 3026998
-2.967 0.67461175 1.7417738 6054498
-2.9630001 0.67935681 1.7408514 10134167
-2.967 0.68283981 1.7417738 10265753
-2.967 0.68695384 1.7417738 10592921
-2.9630001 0.69166809 1.7408514 10526874
-2.9590001 0.69636178 1.7399288 10724253
-2.9630001 0.69987559 1.7408514 10724253
-2.9590001 0.70454878 1.7399288 10592926
-2.9590001 0.7086423 1.7399288 10790305
-2.9590001 0.71273583 1.7399288 10658719
-2.9590001 0.7168293 1.7399288 10856098
-2.9590001 0.72092283 1.7399288 10790305
-2.9590001 0.7250163 1.7399288 10790305
-2.9630001 0.72860199 1.7408514 10855841
-2.9630001 0.73270577 1.7408514 10855841
-2.9630001 0.73680949 1.7408514 10855841
-2.967 0.74043632 1.7417738 10724255
-2.967 0.74455035 1.7417738 10527133
-2.967 0.74866438 1.7417738 10395547
-2.9710002 0.75233215 1.7426963 7632762
-2.9710002 0.75645649 1.7426963 3027252
-2.9710002 0.76058078 1.7426963 3224377
-2.9710002 0.76470506 1.7426963 3026998
-2.9710002 0.76882935 1.7426963 5066065
-2.9710002 0.77295363 1.7426963 10395298
-2.9710002 0.77707797 1.7426963 10395041
-2.9710002 0.78120226 1.7426963 10264482
-2.9749999 0.78496248 1.7436187 10330273
-2.9790001 0.7887432 1.7445412 10461857
-2.9790001 0.79288805 1.7445412 10461857
-2.9790001 0.79703283 1.7445412 10461857
-2.9790001 0.80117768 1.7445412 10461340
-2.9790001 0.80532253 1.7445412 10395547
-2.983 0.80916488 1.7454636 10462110
-2.983 0.81331998 1.7454636 10462110
-2.983 0.81747508 1.7454636 10461857
-2.983 0.82163018 1.7454636 10527650
-2.9790001 0.82604671 1.7445412 10461857
-2.9790001 0.83019149 1.7445412 10461857
-2.9749999 0.83457726 1.7436187 10396064
-2.9790001 0.83848119 1.7445412 10461857
-2.9790001 0.84262598 1.7445412 10592673
-2.9790001 0.84677082 1.7445412 10592673
-2.9790001 0.85091567 1.7445412 7368816
-2.9790001 0.85506052 1.7445412 3619135
-2.9790001 0.85920531 1.7445412 3290940
-2.9790001 0.86335015 1.7445412 3619905
-2.9749999 0.86765379 1.7436187 5133144
-2.9749999 0.87178832 1.7436187 10986404
-2.9749999 0.87592292 1.7436187 11184806
-2.9749999 0.88005745 1.7436187 11382185
-2.9710002 0.88430977 1.7426963 11316649
-2.967 0.88854146 1.7417738 11382442
-2.967 0.89265549 1.7417738 11382442
-2.967 0.89676952 1.7417738 11250603
-2.9710002 0.90080696 1.7426963 11184806
-2.9710002 0.90493125 1.7426963 11184806
-2.9710002 0.90905553 1.7426963 10592667
-2.9710002 0.91317981 1.7426963 10262932
-2.9749999 0.91726857 1.7436187 5130829
-2.9749999 0.92140311 1.7436187 4868429
-2.9749999 0.92553771 1.7436187 4802636
-2.9749999 0.92967224 1.7436187 4671823
-2.9749999 0.93380684 1.7436187 4540237
-2.9790001 0.93795711 1.7445412 4672595
-2.9790001 0.94210196 1.7445412 4738388
-2.983 0.94628304 1.7454636 4672595
-2.983 0.95043814 1.7454636 4804183
-2.9879999 0.95466429 1.7466166 4607317
-2.9879999 0.9588322 1.7466166 4344143
-2.9920001 0.96307749 1.747539 4080971
-2.9920001 0.96725565 1.747539 3883590
-2.9920001 0.97143388 1.747539 3752774
-2.9960001 0.97572017 1.7484616 4279118
-3 0.98002702 1.749384 4344911
-3.0050001 0.98438662 1.7505372 4870487
-3 0.98842448 1.749384 4870487
-3.0050001 0.99280971 1.7505372 4871259
-3.0050001 0.99702132 1.7505372 4871259
-3.0050001 1.0012329 1.7505372 4739673
-3.0090001 1.0056244 1.7514596 4871259
-3.0090001 1.0098462 1.7514596 5133661
-3.0050001 1.0138675 1.7505372 5002845
-3.0050001 1.018079 1.7505372 5068638
-3 1.0220143 1.749384 5200224
-3 1.026213 1.749384 5266017
-2.9960001 1.0301702 1.7484616 5331038
-2.9920001 1.0341067 1.747539 5199452
-2.9920001 1.038285 1.747539 5199452
-2.9879999 1.0421908 1.7466166 5068636
-2.9920001 1.0466413 1.747539 5002845
-2.9920001 1.0508195 1.747539 5002845
-2.9920001 1.0549977 1.747539 5133661
-2.9920001 1.059176 1.747539 4936282
-2.9960001 1.0636778 1.7484616 4409684
-2.9960001 1.0678663 1.7484616 4277839
-3 1.072399 1.749384 4410708
-3.0050001 1.0770409 1.7505372 4805466
-3.0050001 1.0812525 1.7505372 4412251
-3.0090001 1.085839 1.7514596 4805979
-3.0090001 1.0900609 1.7514596 5527906
-3.013 1.0946783 1.752382 5198941
-3.013 1.0989103 1.752382 5264734
-3.027 1.1643512 1.7556106 10790572
-3.027 1.1686192 1.7556106 6579054
-3.027 1.1728872 1.7556106 4277839
-3.027 1.1771553 1.7556106 4541011
-3.027 1.1814233 1.7556106 5923175
-3.0310001 1.1863024 1.756533 11581112
-3.0310001 1.1905807 1.756533 12041661
-3.027 1.1942273 1.7556106 12041661
-3.027 1.1984954 1.7556106 12041663
-3.027 1.2027633 1.7556106 12173247
-3.027 1.2070314 1.7556106 12107454
-3.027 1.2112994 1.7556106 11712694
-3.04 1.2952123 1.7586086 11646135
-3.036 1.2986355 1.7576861 11843510
-3.036 1.3029265 1.7576861 11909303
-3.04 1.3081163 1.7586086 11712694
-3.04 1.3124177 1.7586086 11712694
-3.0180001 1.3328885 1.753535 12106682
-3.013 1.3359075 1.752382 12106682
-3.0090001 1.3433704 1.7514596 12238268
-3.049 1.3879789 1.7606841 8618628
-3.0450001 1.3912097 1.7597617 9013386
-3.0450001 1.3955239 1.7597617 12961223
-3.036 1.3973312 1.7576861 12238268
-3.036 1.4016223 1.7576861 13882576
-3.0310001 1.4044951 1.756533 13619656
-3.049 1.4441972 1.7606841 10526623
-3.049 1.4485216 1.7606841 10328476
-3.0450001 1.4516088 1.7597617 10196890
-3.04 1.4543633 1.7586086 9341581
-3.04 1.4586649 1.7586086 8750471
-3.036 1.4616981 1.7576861 7501946
-3.036 1.4659891 1.7576861 6120039
-3.036 1.4702802 1.7576861 5988453
-3.0310001 1.4729476 1.756533 6646383
-2.9879999 0.38782591 1.7424488 11184806
-2.9920001 0.39066482 1.743361 11316392
-2.9920001 0.39484298 1.743361 11184806
-2.9920001 0.39902121 1.743361 11119013
-2.9920001 0.40319937 1.743361 11382185
-2.9920001 0.40737754 1.743361 11316392
-2.9790001 0.42399806 1.7403964 11316392
-2.9749999 0.42938989 1.7394841 11382185
-2.9749999 0.43352443 1.7394841 11382185
-2.9710002 0.43888539 1.7385719 11119013
-2.9710002 0.4430097 1.7385719 10526876
-2.9749999 0.44592813 1.7394841 9342610
-2.9749999 0.45006269 1.7394841 3749953
-2.9879999 0.45868072 1.7424488 4737616
-2.9920001 0.46169412 1.743361 10986657
-2.9920001 0.46587229 1.743361 11118243
-2.9920001 0.47005048 1.743361 11512999
-2.9960001 0.47310489 1.7442732 11644072
-2.9749999 0.49967748 1.7394841 11513771
-2.9749999 0.50381207 1.7394841 11382189
-2.9749999 0.50794661 1.7394841 11382189
-2.9790001 0.5110395 1.7403964 11382189
-2.9790001 0.51518434 1.7403964 11382189
-2.9749999 0.52035028 1.7394841 11447982
-2.9749999 0.52448487 1.7394841 11316396
-2.9790001 0.52761889 1.7403964 11447982
-2.9790001 0.53176367 1.7403964 11579564
-2.9790001 0.53590846 1.7403964 11513771
-2.9790001 0.54005337 1.7403964 11513771
-2.9749999 0.54515767 1.7394841 10922661
-2.9749999 0.54929227 1.7394841 7106667
-2.9749999 0.55342686 1.7394841 3619907
-2.9749999 0.5575614 1.7394841 3421760
-2.9790001 0.56077749 1.7403964 3881539
-2.9790001 0.56492233 1.7403964 8026498
-2.9790001 0.56906712 1.7403964 11052967
-2.9790001 0.57321197 1.7403964 11382189
-2.9790001 0.57735682 1.7403964 11316396
-2.983 0.58063459 1.7413085 11447978
-2.9879999 0.58371854 1.7424488 11447978
-2.9879999 0.58788651 1.7424488 11513771
-2.9879999 0.59205443 1.7424488 11579564
-2.9879999 0.5962224 1.7424488 11513771
-2.9879999 0.60039032 1.7424488 11447978
-2.9920001 0.60375273 1.743361 11447978
-2.9920001 0.6079309 1.743361 11447978
-2.9879999 0.61289406 1.7424488 11447978
-2.9879999 0.61706197 1.7424488 11447978
-2.9879999 0.62122995 1.7424488 11316392
-2.9879999 0.62539786 1.7424488 11316392
-2.983 0.63049567 1.7413085 11316392
-2.983 0.63465083 1.7413085 11184806
-2.9790001 0.63952923 1.7403964 11184806
-2.9749999 0.64438725 1.7394841 11184806
-2.9710002 0.64922464 1.7385719 11119013
-2.9710002 0.65334898 1.7385719 10921634
-2.9710002 0.65747327 1.7385719 8026748
-2.967 0.66226965 1.7376597 3552824
-2.967 0.66638368 1.7376597 3289400
-2.967 0.67049772 1.7376597 3158838
-2.967 0.67461175 1.7376597 6514279
-2.967 0.67872578 1.7376597 10592669
-2.967 0.68283981 1.7376597 10724255
-2.967 0.68695384 1.7376597 10987427
-2.967 0.69106787 1.7376597 10987425
-2.9630001 0.69577181 1.7367475 10987425
-2.9630001 0.69987559 1.7367475 10921632
-2.9630001 0.70397937 1.7367475 11053218
-2.9630001 0.70808315 1.7367475 11119011
-2.9590001 0.71273583 1.7358353 11053218
-2.9590001 0.7168293 1.7358353 11119013
-2.9590001 0.72092283 1.7358353 11119013
-2.9590001 0.7250163 1.7358353 11053220
-2.9590001 0.72910982 1.7358353 11184806
-2.9630001 0.73270577 1.7367475 10987427
-2.9630001 0.73680949 1.7367475 11053220
-2.9630001 0.74091327 1.7367475 10987684
-2.9630001 0.74501705 1.7367475 10856098
-2.967 0.74866438 1.7376597 10592926
-2.9710002 0.75233215 1.7385719 7632762
-2.9749999 0.75602055 1.7394841 3158838
-2.9749999 0.76015508 1.7394841 3159354
-2.9710002 0.76470506 1.7385719 3028022
-2.9710002 0.76882935 1.7385719 5132628
-2.9710002 0.77295363 1.7385719 10197917
-2.9710002 0.77707797 1.7385719 10461089
-2.9710002 0.78120226 1.7385719 10658468
-2.9749999 0.78496248 1.7394841 10658466
-2.9749999 0.78909701 1.7394841 10790052
-2.9790001 0.79288805 1.7403964 10855845
-2.9790001 0.79703283 1.7403964 10855845
-2.9790001 0.80117768 1.7403964 10526880
-2.9790001 0.80532253 1.7403964 10330524
-2.9790001 0.80946738 1.7403964 10921891
-2.9790001 0.81361216 1.7403964 10856098
-2.983 0.81747508 1.7413085 10921638
-2.983 0.82163018 1.7413085 10790822
-2.9790001 0.82604671 1.7403964 10659236
-2.9790001 0.83019149 1.7403964 10725029
-2.9749999 0.83457726 1.7394841 10725029
-2.9790001 0.83848119 1.7403964 10855845
-2.9790001 0.84262598 1.7403964 10658466
-2.9790001 0.84677082 1.7403964 10461087
-2.9790001 0.85091567 1.7403964 7763574
-2.9790001 0.85506052 1.7403964 3619389
-2.9790001 0.85920531 1.7403964 3290940
-2.9790001 0.86335015 1.7403964 3619907
-2.9790001 0.867495 1.7403964 5593697
-2.9749999 0.87178832 1.7394841 10921381
-2.9749999 0.87592292 1.7394841 11053220
-2.9710002 0.88018543 1.7385719 11382183
-2.9710002 0.88430977 1.7385719 11184804
-2.9710002 0.88843405 1.7385719 11316390
-2.9710002 0.89255834 1.7385719 11119268
-2.9710002 0.89668262 1.7385719 11119270
-2.9710002 0.90080696 1.7385719 11250856
-2.9710002 0.90493125 1.7385719 11119270
-2.967 0.90911168 1.7376597 11382440
-2.9710002 0.91317981 1.7385719 11711405
-2.9710002 0.91730416 1.7385719 11777198
-2.9749999 0.92140311 1.7394841 11842991
-2.9749999 0.92553771 1.7394841 11514026
-2.9749999 0.92967224 1.7394841 11513769
-2.9749999 0.93380684 1.7394841 11251373
-2.9790001 0.93795711 1.7403964 11185580
-2.9790001 0.94210196 1.7403964 10790822
-2.9790001 0.9462468 1.7403964 9935513
-2.983 0.95043814 1.7413085 9013384
-2.9879999 0.95466429 1.7424488 8617858
-2.9879999 0.9588322 1.7424488 6973033
-2.9879999 0.96300012 1.7424488 4209727
-2.9879999 0.96716803 1.7424488 3817284
-2.9920001 0.97143388 1.743361 3555649
-2.9960001 0.97572017 1.7442732 4081739
-3 0.98002702 1.7451854 4015946
-3 0.98422575 1.7451854 4739153
-3 0.98842448 1.7451854 4540491
-3.0050001 0.99280971 1.7463255 4541007
-3.0050001 0.99702132 1.7463255 4080969
-3.0050001 1.0012329 1.7463255 4344141
-3.0050001 1.0054444 1.7463255 4672593
-3.0050001 1.009656 1.7463255 5460569
-3.0050001 1.0138675 1.7463255 5657948
-3.0050001 1.018079 1.7463255 5657948
-3 1.0220143 1.7451854 5658202
-3 1.026213 1.7451854 7105646
-2.9960001 1.0301702 1.7442732 6315873
-2.9920001 1.0341067 1.743361 5987165
-2.9920001 1.038285 1.743361 5921372
-2.9879999 1.0421908 1.7424488 5658972
-2.9879999 1.0463587 1.7424488 5396316
-2.9920001 1.0508195 1.743361 5132374
-2.9920001 1.0549977 1.743361 5132374
-2.9920001 1.059176 1.743361 4934995
-2.9960001 1.0636778 1.7442732 4277065
-2.9960001 1.0678663 1.7442732 4146251
-3 1.072399 1.7451854 4146764
-3.0050001 1.0770409 1.7463255 4409936
-3.0050001 1.0812525 1.7463255 4608085
-3.0090001 1.085839 1.7472377 4936280
-3.0050001 1.0896755 1.7463255 5263962
-3.0090001 1.0942827 1.7472377 5263962
-3.013 1.0989103 1.7481499 5263962
-3.013 1.1031425 1.7481499 5395548
-3.0180001 1.1079075 1.7492902 5264732
-3.027 1.1558151 1.7513425 5396320
-3.027 1.1600832 1.7513425 5067101
-3.027 1.1686192 1.7513425 5067355
-3.027 1.1728872 1.7513425 4212559
-3.027 1.1771553 1.7513425 4409938
-3.027 1.1814233 1.7513425 5067866
-3.0310001 1.1863024 1.7522547 5528417
-3.027 1.1899593 1.7513425 6515312
-3.027 1.1942273 1.7513425 6712691
-3.027 1.1984954 1.7513425 6843764
-3.027 1.2027633 1.7513425 7041143
-3.027 1.2070314 1.7513425 7501694
-3.027 1.2112994 1.7513425 7896450
-3.0220001 1.2147137 1.7502024 7370106
-3.0180001 1.2182755 1.7492902 8028036
-3.013 1.2258731 1.7481499 9146771
-3.0090001 1.2293811 1.7472377 8949392
-3.0090001 1.233603 1.7472377 9213077
-3.0090001 1.2378248 1.7472377 9409943
-3.0310001 1.2804247 1.7522547 4409675
-3.036 1.2900532 1.7533951 8750473
-3.036 1.2943444 1.7533951 11316400
-3.036 1.2986355 1.7533951 11251893
-3.036 1.3029265 1.7533951 11054768
-3.036 1.3072177 1.7533951 10792109
-3.027 1.3265359 1.7513425 12436930
-3.0220001 1.333859 1.7502024 10197915
-3.0180001 1.3371334 1.7492902 10067103
-3.013 1.3401395 1.7481499 8949138
-3.013 1.3443717 1.7481499 8949392
-3.0450001 1.3825812 1.7554474 7107188
-3.0450001 1.3868955 1.7554474 7962495
-3.0450001 1.3912097 1.7554474 7830909
-3.0450001 1.3955239 1.7554474 7567735
-3.04 1.3984454 1.7543073 9277585
-3.04 1.4027468 1.7543073 9868176
-3.049 1.4398727 1.7563596 7893883
-3.049 1.4441972 1.7563596 7368309
-3.049 1.4485216 1.7563596 7500922
-3.0450001 1.4516088 1.7554474 7237750
-3.04 1.4543633 1.7543073 7106934
-3.04 1.4586649 1.7543073 6843762
-3.04 1.4629662 1.7543073 5856867
-3.036 1.4659891 1.7533951 5133146
-3.036 1.4702802 1.7533951 5198939
-3.036 1.4745715 1.7533951 5198939
-3.0310001 1.477226 1.7522547 5263960
-2.9879999 0.39616179 1.7382808 11316392
-2.9879999 0.40032971 1.7382808 11382185
-2.9920001 0.40319937 1.7391827 11382185
-2.9749999 0.42938989 1.7353495 11513001
-2.9749999 0.43352443 1.7353495 11447208
-2.9749999 0.437659 1.7353495 11315622
-2.9710002 0.4430097 1.7344477 10658462
-2.9749999 0.44592813 1.7353495 9342608
-2.9749999 0.45006269 1.7353495 3487549
-2.9920001 0.46169412 1.7391827 11052199
-2.9920001 0.46587229 1.7391827 11315371
-2.9920001 0.47005048 1.7391827 11513001
-2.9749999 0.49554291 1.7353495 11644334
-2.9710002 0.50074989 1.7344477 11513518
-2.9710002 0.50487423 1.7344477 11447725
-2.9749999 0.50794661 1.7353495 11579568
-2.9790001 0.5110395 1.7362515 11513775
-2.9790001 0.51518434 1.7362515 11382189
-2.9749999 0.52035028 1.7353495 11513775
-2.9790001 0.52347398 1.7362515 11513775
-2.9790001 0.52761889 1.7362515 11579568
-2.983 0.5307734 1.7371534 11513775
-2.983 0.53492844 1.7371534 11579821
-2.983 0.5390836 1.7371534 11447978
-2.9790001 0.54419816 1.7362515 11184036
-2.9749999 0.54929227 1.7353495 7433835
-2.9749999 0.55342686 1.7353495 3619907
-2.9749999 0.5575614 1.7353495 3619139
-2.9790001 0.56077749 1.7362515 3947332
-2.9790001 0.56492233 1.7362515 9144979
-2.9790001 0.56906712 1.7362515 11316396
-2.9790001 0.57321197 1.7362515 11447982
-2.983 0.57647943 1.7371534 11447982
-2.983 0.58063459 1.7371534 11579311
-2.9879999 0.58371854 1.7382808 11579311
-2.9879999 0.58788651 1.7382808 11579311
-2.9879999 0.59205443 1.7382808 11579311
-2.9879999 0.5962224 1.7382808 11645357
-2.9920001 0.59957451 1.7391827 11579564
-2.9920001 0.60375273 1.7391827 11513771
-2.9920001 0.6079309 1.7391827 11513771
-2.9920001 0.61210907 1.7391827 11579564
-2.9879999 0.62539786 1.7382808 11447978
-2.983 0.63049567 1.7371534 11316392
-2.983 0.63465083 1.7371534 11316392
-2.9790001 0.63952923 1.7362515 11184806
-2.9749999 0.64438725 1.7353495 11184806
-2.9749999 0.64852184 1.7353495 11184806
-2.9710002 0.65334898 1.7344477 11184806
-2.9749999 0.65679097 1.7353495 8158077
-2.9710002 0.66159761 1.7344477 3684153
-2.9710002 0.66572189 1.7344477 3158584
-2.9710002 0.66984618 1.7344477 3158584
-2.967 0.67461175 1.7335458 6710888
-2.9710002 0.67809474 1.7344477 10723485
-2.9710002 0.68221909 1.7344477 11118243
-2.9710002 0.68634337 1.7344477 11119013
-2.967 0.69106787 1.7335458 11119011
-2.9630001 0.69577181 1.7326438 11119011
-2.9630001 0.69987559 1.7326438 11119011
-2.9630001 0.70397937 1.7326438 11119013
-2.9630001 0.70808315 1.7326438 11184806
-2.9590001 0.71273583 1.7317419 11184806
-2.9590001 0.7168293 1.7317419 11184806
-2.9590001 0.72092283 1.7317419 11184806
-2.9590001 0.7250163 1.7317419 11316392
-2.9590001 0.72910982 1.7317419 11382185
-2.9630001 0.73270577 1.7326438 11119013
-2.9630001 0.73680949 1.7326438 11119013
-2.9630001 0.74091327 1.7326438 11184806
-2.9630001 0.74501705 1.7326438 10987684
-2.967 0.74866438 1.7335458 10790305
-2.9749999 0.75188595 1.7353495 7436153
-2.9749999 0.75602055 1.7353495 3093815
-2.9749999 0.76015508 1.7353495 3159354
-2.9749999 0.76428962 1.7353495 3093815
-2.9710002 0.76882935 1.7344477 5132626
-2.9710002 0.77295363 1.7344477 10329501
-2.9749999 0.77669334 1.7353495 10592673
-2.9749999 0.78082788 1.7353495 10987433
-2.9749999 0.78496248 1.7353495 11119017
-2.9749999 0.78909701 1.7353495 11053224
-2.9749999 0.79323161 1.7353495 11053224
-2.9790001 0.79703283 1.7362515 10921638
-2.9790001 0.80117768 1.7362515 10725029
-2.9790001 0.80532253 1.7362515 10725029
-2.9790001 0.80946738 1.7362515 10922408
-2.9790001 0.81361216 1.7362515 10922408
-2.9790001 0.81775701 1.7362515 10922408
-2.9790001 0.82190186 1.7362515 10922408
-2.9790001 0.82604671 1.7362515 10856615
-2.9790001 0.83019149 1.7362515 10856615
-2.9749999 0.83457726 1.7353495 10922408
-2.9790001 0.83848119 1.7362515 10922408
-2.9790001 0.84262598 1.7362515 10725029
-2.9790001 0.84677082 1.7362515 10527650
-2.9790001 0.85091567 1.7362515 8027516
-2.983 0.85487092 1.7371534 3685952
-2.9790001 0.85920531 1.7362515 3291707
-2.9790001 0.86335015 1.7362515 3488321
-2.9790001 0.867495 1.7362515 6317420
-2.9790001 0.87163985 1.7362515 11118760
-2.9749999 0.87592292 1.7353495 11447978
-2.9749999 0.88005745 1.7353495 11645355
-2.9749999 0.88419205 1.7353495 11579562
-2.9710002 0.88843405 1.7344477 11579562
-2.9710002 0.89255834 1.7344477 11579819
-2.9710002 0.89668262 1.7344477 11448233
-2.9710002 0.90080696 1.7344477 11711405
-2.9710002 0.90493125 1.7344477 11711405
-2.9710002 0.90905553 1.7344477 11711405
-2.9710002 0.91317981 1.7344477 11711405
-2.9710002 0.91730416 1.7344477 11711405
-2.9710002 0.92142844 1.7344477 11842991
-2.9710002 0.92555273 1.7344477 11842991
-2.9749999 0.92967224 1.7353495 11777198
-2.9749999 0.93380684 1.7353495 11908786
-2.9749999 0.93794137 1.7353495 11776947
-2.9790001 0.94210196 1.7362515 11579568
-2.9790001 0.9462468 1.7362515 11513775
-2.983 0.95043814 1.7371534 11382189
-2.983 0.95459324 1.7371534 11119017
-2.9879999 0.9588322 1.7382808 11645104
-2.9879999 0.96300012 1.7382808 5920343
-2.9879999 0.96716803 1.7382808 3751745
-2.9920001 0.97143388 1.7391827 3555649
-2.9920001 0.97561204 1.7391827 3555649
-2.9960001 0.97990865 1.7400846 9871777
-3 0.98422575 1.7409866 11252396
-3 0.98842448 1.7409866 10725280
-3 0.99262321 1.7409866 9934486
-3.0050001 0.99702132 1.7421139 9276556
-3.0050001 1.0012329 1.7421139 9276556
-3.0050001 1.0054444 1.7421139 9210763
-3.0050001 1.009656 1.7421139 9145223
-3.0050001 1.0138675 1.7421139 7763570
-3.0050001 1.018079 1.7421139 7368812
-3 1.0220143 1.7409866 6842468
-3 1.026213 1.7409866 6710882
-2.9960001 1.0301702 1.7400846 6315871
-2.9920001 1.0341067 1.7391827 6447457
-2.9920001 1.038285 1.7391827 6381664
-2.9879999 1.0421908 1.7382808 6710888
-2.9879999 1.0463587 1.7382808 6842474
-2.9920001 1.0508195 1.7391827 7039853
-2.9920001 1.0549977 1.7391827 5394773
-2.9920001 1.059176 1.7391827 5131601
-2.9920001 1.0633541 1.7391827 4472901
-2.9960001 1.0678663 1.7400846 4407881
-3 1.072399 1.7409866 4212042
-3 1.0765977 1.7409866 4409421
-3.0050001 1.0812525 1.7421139 4673108
-3.0050001 1.085464 1.7421139 5133146
-3.0050001 1.0896755 1.7421139 5328985
-3.0090001 1.0942827 1.7430159 5723486
-3.0090001 1.0985045 1.7430159 6249830
-3.013 1.1031425 1.7439178 6053478
-3.013 1.1073745 1.7439178 5658720
-3.0180001 1.1121525 1.7450452 5396318
-3.027 1.138743 1.7470746 5067866
-3.0220001 1.1466306 1.7459471 4871257
-3.0220001 1.1508858 1.7459471 4608085
-3.0220001 1.155141 1.7459471 4542292
-3.0220001 1.1593962 1.7459471 4542294
-3.0220001 1.1636513 1.7459471 4542292
-3.027 1.1686192 1.7470746 4409936
-3.027 1.1728872 1.7470746 4212557
-3.027 1.1771553 1.7470746 4344143
-3.027 1.1814233 1.7470746 4541522
-3.0310001 1.1863024 1.7479765 4738901
-3.0310001 1.1905807 1.7479765 5264732
-3.027 1.1942273 1.7470746 5527904
-3.027 1.1984954 1.7470746 5462111
-3.027 1.2027633 1.7470746 5198939
-3.027 1.2070314 1.7470746 5396316
-3.027 1.2112994 1.7470746 5264730
-3.0220001 1.2147137 1.7459471 5396316
-3.0180001 1.2182755 1.7450452 5198937
-3.013 1.2216411 1.7439178 5133146
-3.013 1.2258731 1.7439178 5001558
-3.0090001 1.2293811 1.7430159 5067351
-3.0090001 1.233603 1.7430159 5067864
-3.0090001 1.2378248 1.7430159 4870487
-3.0090001 1.2420466 1.7430159 5002073
-3.013 1.2470336 1.7439178 4870489
-3.0310001 1.2761464 1.7479765 4016209
-3.0310001 1.2804247 1.7479765 4081741
-3.0310001 1.284703 1.7479765 4409675
-3.0310001 1.2889813 1.7479765 4935249
-3.036 1.2943444 1.7491039 5264214
-3.036 1.2986355 1.7491039 5001558
-3.0310001 1.3018162 1.7479765 5001560
-3.0310001 1.3060944 1.7479765 5133146
-3.0310001 1.3103727 1.7479765 5133146
-3.027 1.322268 1.7470746 5200224
-3.027 1.3265359 1.7470746 5660773
-3.0220001 1.3296037 1.7459471 5002841
-3.0220001 1.333859 1.7459471 5001558
-3.0180001 1.3371334 1.7450452 5001562
-3.013 1.3401395 1.7439178 4936282
-3.013 1.3443717 1.7439178 4607317
-3.0180001 1.3498682 1.7450452 4607317
-3.0450001 1.3825812 1.7511332 6120806
-3.049 1.3879789 1.7520351 7370360
-3.0450001 1.3912097 1.7511332 7041395
-3.0450001 1.3955239 1.7511332 7238774
-3.0450001 1.3998382 1.7511332 6844016
-3.0450001 1.4041524 1.7511332 8422276
-3.0539999 1.4370437 1.7531626 6776429
-3.0539999 1.441381 1.7531626 7170930
-3.049 1.4441972 1.7520351 6842222
-3.0450001 1.4472945 1.7511332 6777199
-3.04 1.450062 1.7500058 6777199
-3.04 1.4543633 1.7500058 6514799
-3.04 1.4586649 1.7500058 6318703
-3.036 1.4616981 1.7491039 5660003
-3.036 1.4659891 1.7491039 5133146
-3.036 1.4702802 1.7491039 5067353
-3.036 1.4745715 1.7491039 5527134
-3.0310001 1.477226 1.7479765 5329753
-2.9790001 0.3908394 1.7321067 11447725
-2.983 0.41443068 1.7329984 11447978
-2.9749999 0.42938989 1.731215 11447978
-2.9710002 0.43476111 1.7303233 11447978
-2.9710002 0.43888539 1.7303233 11184806
-2.9710002 0.4430097 1.7303233 10658460
-2.9749999 0.44592813 1.731215 9211792
-2.9920001 0.46587229 1.7350045 11316141
-2.9920001 0.47005048 1.7350045 11512748
-2.9710002 0.4966256 1.7303233 11579311
-2.9710002 0.50074989 1.7303233 11579311
-2.9710002 0.50487423 1.7303233 11513518
-2.9749999 0.50794661 1.731215 11711154
-2.9749999 0.51208115 1.731215 11711154
-2.9790001 0.51518434 1.7321067 11513775
-2.9749999 0.52035028 1.731215 11513777
-2.9790001 0.52347398 1.7321067 11711154
-2.9790001 0.52761889 1.7321067 11579568
-2.983 0.5307734 1.7329984 11513775
-2.983 0.53492844 1.7329984 11514028
-2.983 0.5390836 1.7329984 11447978
-2.9790001 0.54419816 1.7321067 11184806
-2.9749999 0.54929227 1.731215 7303019
-2.9749999 0.55342686 1.731215 3619909
-2.9749999 0.5575614 1.731215 3684930
-2.9749999 0.56169593 1.731215 4078918
-2.9790001 0.56492233 1.7321067 9342358
-2.9790001 0.56906712 1.7321067 11316396
-2.9790001 0.57321197 1.7321067 11447982
-2.9790001 0.57735682 1.7321067 11447982
-2.9790001 0.58150166 1.7321067 11579311
-2.983 0.62634063 1.7329984 11579821
-2.983 0.63049567 1.7329984 11579564
-2.9790001 0.63538444 1.7321067 11447978
-2.9790001 0.63952923 1.7321067 11382185
-2.9749999 0.64438725 1.731215 11382185
-2.9710002 0.64922464 1.7303233 11316392
-2.9710002 0.65334898 1.7303233 11119013
-2.9749999 0.65679097 1.731215 8421506
-2.9749999 0.66092551 1.731215 3815996
-2.9749999 0.66506004 1.731215 3224379
-2.9710002 0.66984618 1.7303233 2765111
-2.9710002 0.67397046 1.7303233 6316132
-2.9710002 0.67809474 1.7303233 10658462
-2.9710002 0.68221909 1.7303233 10987427
-2.967 0.68695384 1.7294316 11316392
-2.9710002 0.69046766 1.7303233 11250856
-2.9630001 0.69577181 1.7285401 11316649
-2.9630001 0.69987559 1.7285401 11316649
-2.9630001 0.70397937 1.7285401 11250856
-2.9630001 0.70808315 1.7285401 11250603
-2.9630001 0.71218693 1.7285401 11316396
-2.9590001 0.7168293 1.7276484 11316649
-2.9590001 0.72092283 1.7276484 11316649
-2.9590001 0.7250163 1.7276484 11316649
-2.9590001 0.72910982 1.7276484 11316396
-2.9630001 0.73270577 1.7285401 11250603
-2.9630001 0.73680949 1.7285401 11119017
-2.9630001 0.74091327 1.7285401 11250603
-2.9749999 0.75602055 1.731215 3356987
-2.9749999 0.76015508 1.731215 3159354
-2.9749999 0.76428962 1.731215 3093561
-2.9749999 0.76842421 1.731215 5395798
-2.9710002 0.77295363 1.7303233 10396317
-2.9710002 0.77707797 1.7303233 10791075
-2.9710002 0.78120226 1.7303233 10922410
-2.9710002 0.78532654 1.7303233 11119789
-2.9710002 0.78945088 1.7303233 11250603
-2.9710002 0.79357517 1.7303233 11250603
-2.9749999 0.79736614 1.731215 11119017
-2.9749999 0.80150074 1.731215 10856615
-2.9790001 0.80532253 1.7321067 10725029
-2.9749999 0.80976987 1.731215 10988201
-2.9790001 0.81361216 1.7321067 10988201
-2.9790001 0.81775701 1.7321067 11317166
-2.9790001 0.82190186 1.7321067 11119787
-2.9749999 0.82630813 1.731215 10856615
-2.9749999 0.83044267 1.731215 10922408
-2.9749999 0.83457726 1.731215 10988201
-2.9790001 0.83848119 1.7321067 10988201
-2.9790001 0.84262598 1.7321067 10856615
-2.9790001 0.84677082 1.7321067 10397087
-2.983 0.85071582 1.7329984 8291711
-2.983 0.85487092 1.7329984 3948100
-2.983 0.85902601 1.7329984 3489086
-2.983 0.86318111 1.7329984 3225662
-2.9790001 0.867495 1.7321067 6120554
-2.9790001 0.87163985 1.7321067 11184553
-2.9790001 0.87578464 1.7321067 11645357
-2.9749999 0.88005745 1.731215 11842736
-2.9710002 0.88430977 1.7303233 11645355
-2.9710002 0.88843405 1.7303233 11645355
-2.9710002 0.89255834 1.7303233 11711405
-2.9710002 0.89668262 1.7303233 11711407
-2.9710002 0.90080696 1.7303233 11711407
-2.9710002 0.90493125 1.7303233 11711407
-2.967 0.90911168 1.7294316 11711407
-2.9710002 0.91317981 1.7303233 11712177
-2.9710002 0.91730416 1.7303233 11777970
-2.9710002 0.92142844 1.7303233 11777970
-2.9710002 0.92555273 1.7303233 11712177
-2.9710002 0.92967701 1.7303233 11712177
-2.9749999 0.93380684 1.731215 11777970
-2.9749999 0.93794137 1.731215 11776947
-2.9749999 0.94207597 1.731215 11776947
-2.9790001 0.9462468 1.7321067 11579568
-2.983 0.95043814 1.7329984 11513775
-2.983 0.95459324 1.7329984 11317166
-2.9879999 0.9588322 1.7341129 11513775
-2.9879999 0.96300012 1.7341129 6184542
-2.9879999 0.96716803 1.7341129 3817286
-2.9879999 0.97133601 1.7341129 3555397
-2.9920001 0.97561204 1.7350045 3621442
-2.9920001 0.97979021 1.7350045 10792879
-2.9960001 0.98409712 1.7358962 11647667
-2.9960001 0.98828554 1.7358962 11974579
-3 1.0178156 1.7367878 12105908
-3 1.0220143 1.7367878 12237494
-2.9960001 1.0259817 1.7358962 11974322
-2.9960001 1.0301702 1.7358962 11908533
-2.9960001 1.0343586 1.7358962 12303544
-2.9920001 1.038285 1.7350045 12369337
-2.9879999 1.0421908 1.7341129 11908786
-2.9879999 1.0463587 1.7341129 11908786
-2.9920001 1.0508195 1.7350045 11777200
-2.9920001 1.0549977 1.7350045 11579821
-2.9920001 1.059176 1.7350045 11711407
-2.9920001 1.0633541 1.7350045 7697007
-2.9920001 1.0675323 1.7350045 3882561
-2.9960001 1.0720547 1.7358962 4277065
-3 1.0765977 1.7367878 4342858
-3.0050001 1.0812525 1.7379024 11449274
-3.0050001 1.085464 1.7379024 12041142
-3.0050001 1.0896755 1.7379024 11974579
-3.0050001 1.0938871 1.7379024 11842993
-3.0090001 1.0985045 1.7387941 11448235
-3.013 1.1031425 1.7396858 10921638
-3.013 1.1073745 1.7396858 11119017
-3.0180001 1.1121525 1.7408004 10987174
-3.0180001 1.1163974 1.7408004 10395037
-3.0180001 1.1206423 1.7408004 10395039
-3.0220001 1.1253546 1.7416921 9473937
-3.0220001 1.1296098 1.7416921 8684678
-3.027 1.134475 1.7428066 8289920
-3.0220001 1.1381203 1.7416921 8026748
-3.0220001 1.1423755 1.7416921 6645095
-3.0220001 1.1466306 1.7416921 6185316
-3.0220001 1.1508858 1.7416921 5857121
-3.0220001 1.155141 1.7416921 6120293
-3.0220001 1.1593962 1.7416921 6054500
-3.0220001 1.1636513 1.7416921 5724765
-3.027 1.1686192 1.7428066 4738899
-3.027 1.1728872 1.7428066 4212557
-3.027 1.1771553 1.7428066 4344143
-3.0310001 1.1820241 1.7436982 4541522
-3.0310001 1.1863024 1.7436982 4870487
-3.0310001 1.1905807 1.7436982 5264732
-3.027 1.1942273 1.7428066 5462111
-3.0310001 1.1991373 1.7436982 5396318
-3.027 1.2027633 1.7428066 5133146
-3.027 1.2070314 1.7428066 5199452
-3.027 1.2112994 1.7428066 5133146
-3.027 1.2155675 1.7428066 5198939
-3.0220001 1.2189689 1.7416921 5067353
-3.0180001 1.2225205 1.7408004 4935767
-3.0180001 1.2267654 1.7408004 4935767
-3.013 1.2301052 1.7396858 4804181
-3.013 1.2343373 1.7396858 4870487
-3.0090001 1.2378248 1.7387941 4804181
-3.0090001 1.2420466 1.7387941 4935767
-3.013 1.2470336 1.7396858 4738903
-3.013 1.2512656 1.7396858 5002075
-3.0180001 1.2564799 1.7408004 4937050
-3.0310001 1.2761464 1.7436982 4015950
-3.0310001 1.2804247 1.7436982 4146764
-3.027 1.2838558 1.7428066 4212555
-3.0310001 1.2889813 1.7436982 4475981
-3.0310001 1.2932596 1.7436982 4541774
-3.0310001 1.2975379 1.7436982 4738640
-3.0310001 1.3018162 1.7436982 4804179
-3.0310001 1.3060944 1.7436982 4935765
-3.0310001 1.3103727 1.7436982 4935765
-3.027 1.3137319 1.7428066 4936278
-3.027 1.318 1.7428066 4936280
-3.027 1.322268 1.7428066 5002843
-3.0220001 1.3253486 1.7416921 5462624
-3.0220001 1.3296037 1.7416921 5462624
-3.0180001 1.3328885 1.7408004 5198167
-3.0180001 1.3371334 1.7408004 5067353
-3.0180001 1.3413783 1.7408004 4870487
-3.0180001 1.3456233 1.7408004 4608085
-3.0450001 1.378267 1.746819 5263962
-3.0450001 1.3825812 1.746819 5329753
-3.049 1.3879789 1.7477107 5658718
-3.0450001 1.3912097 1.746819 6250085
-3.0450001 1.3955239 1.746819 6579050
-3.049 1.4009523 1.7477107 6645615
-3.0580001 1.4251972 1.7497169 7367541
-3.0580001 1.4295448 1.7497169 8026496
-3.0539999 1.441381 1.7488253 8025469
-3.036 1.4574069 1.7448127 6579570
-3.036 1.4616981 1.7448127 8618635
-3.036 1.4659891 1.7448127 9802134
-3.036 1.4702802 1.7448127 9144204
-3.036 1.4745715 1.7448127 9012105
-2.9749999 0.38804418 1.7270805 11185580
-2.9749999 0.39217877 1.7270805 11447982
-2.9749999 0.39631337 1.7270805 11382189
-2.9790001 0.39912909 1.7279618 11316139
-2.9790001 0.40327394 1.7279618 11447978
-2.983 0.40612048 1.7288432 11447978
-2.983 0.41027558 1.7288432 11316392
-2.983 0.41443068 1.7288432 11513771
-2.9749999 0.42938989 1.7270805 11513771
-2.9710002 0.43476111 1.726199 11513771
-2.9710002 0.43888539 1.726199 11316392
-2.967 0.44422588 1.7253177 10855839
-2.9710002 0.44713399 1.726199 8421506
-2.9879999 0.46701658 1.7299449 11380902
-2.9710002 0.49250129 1.726199 11776690
-2.9710002 0.4966256 1.726199 11645104
-2.967 0.50182235 1.7253177 11645104
-2.967 0.50593638 1.7253177 11645104
-2.9710002 0.50899851 1.726199 11842483
-2.9749999 0.51208115 1.7270805 11842483
-2.9790001 0.51518434 1.7279618 11711154
-2.9749999 0.52035028 1.7270805 11579568
-2.9790001 0.52347398 1.7279618 11776947
-2.9790001 0.52761889 1.7279618 11711154
-2.9790001 0.53176367 1.7279618 11711407
-2.983 0.53492844 1.7288432 11514028
-2.9790001 0.54005337 1.7279618 11448235
-2.9749999 0.54515767 1.7270805 10987684
-2.9710002 0.55024147 1.726199 6447967
-2.9710002 0.55436575 1.726199 3554629
-2.9749999 0.5575614 1.7270805 3684930
-2.9749999 0.56169593 1.7270805 4078918
-2.9749999 0.56583053 1.7270805 9539737
-2.9749999 0.56996506 1.7270805 11316649
-2.9749999 0.57409966 1.7270805 11579821
-2.9790001 0.62709475 1.7279618 11579821
-2.983 0.63049567 1.7288432 11514028
-2.9790001 0.63538444 1.7279618 11382442
-2.9790001 0.63952923 1.7279618 11382189
-2.9749999 0.64438725 1.7270805 11316396
-2.9749999 0.64852184 1.7270805 11250603
-2.9710002 0.65334898 1.726199 11119017
-2.9749999 0.65679097 1.7270805 8553094
-2.9749999 0.66092551 1.7270805 4013377
-2.9710002 0.66572189 1.726199 3159356
-2.9710002 0.66984618 1.726199 2897467
-2.9710002 0.67397046 1.726199 6185316
-2.9749999 0.67746377 1.7270805 10790303
-2.9710002 0.68221909 1.726199 11053475
-2.9710002 0.68634337 1.726199 10988452
-2.9710002 0.69046766 1.726199 11120040
-2.967 0.69518191 1.7253177 11185833
-2.9630001 0.69987559 1.7244363 11185833
-2.9630001 0.70397937 1.7244363 11120040
-2.9630001 0.70808315 1.7244363 11251373
-2.9630001 0.71218693 1.7244363 11185580
-2.9590001 0.7168293 1.7235548 11185580
-2.9590001 0.72092283 1.7235548 11119787
-2.9549999 0.72553438 1.7226735 11185580
-2.9590001 0.72910982 1.7235548 11185582
-2.9590001 0.73320329 1.7235548 11185582
-2.9590001 0.73729682 1.7235548 10988203
-2.9710002 0.75645649 1.726199 3619389
-2.9710002 0.76058078 1.726199 3225147
-2.9710002 0.76470506 1.726199 3093563
-2.9710002 0.76882935 1.726199 5133396
-2.9710002 0.77295363 1.726199 10659489
-2.967 0.7774626 1.7253177 10856868
-2.967 0.78157663 1.7253177 10988201
-2.967 0.78569067 1.7253177 11119787
-2.967 0.7898047 1.7253177 11119787
-2.967 0.79391873 1.7253177 11185580
-2.9710002 0.79769945 1.726199 11250603
-2.9710002 0.80182374 1.726199 11053224
-2.9710002 0.80594802 1.726199 10856615
-2.9749999 0.80976987 1.7270805 10988201
-2.9790001 0.81361216 1.7279618 11185580
-2.9790001 0.81775701 1.7279618 11251373
-2.9790001 0.82190186 1.7279618 11447982
-2.9749999 0.82630813 1.7270805 11316396
-2.9790001 0.83019149 1.7279618 11316396
-2.9790001 0.83433634 1.7279618 11382189
-2.9790001 0.83848119 1.7279618 11316396
-2.9790001 0.84262598 1.7279618 11119017
-2.983 0.84656072 1.7288432 10594466
-2.9879999 0.85046601 1.7299449 8620676
-2.9879999 0.85463399 1.7299449 4014663
-2.983 0.85902601 1.7288432 3424063
-2.983 0.86318111 1.7288432 3619907
-2.983 0.86733621 1.7288432 6120041
-2.9790001 0.87163985 1.7279618 11119017
-2.9790001 0.87578464 1.7279618 11579568
-2.9749999 0.88005745 1.7270805 11777200
-2.9710002 0.88430977 1.726199 11579821
-2.9710002 0.88843405 1.726199 11579821
-2.9710002 0.89255834 1.726199 11777200
-2.9710002 0.89668262 1.726199 11777200
-2.9710002 0.90080696 1.726199 11711407
-2.967 0.90499765 1.7253177 11711407
-2.967 0.90911168 1.7253177 11711407
-2.9710002 0.91317981 1.726199 11842993
-2.9710002 0.91730416 1.726199 11777970
-2.9710002 0.92142844 1.726199 11843510
-2.9710002 0.92555273 1.726199 12106682
-2.9710002 0.92967701 1.726199 11711924
-2.9710002 0.93380135 1.726199 11711924
-2.9710002 0.93792564 1.726199 11646131
-2.9749999 0.94207597 1.7270805 11646131
