# .PCD v0.7 - Point Cloud Data file format
VERSION 0.7
FIELDS x y z
SIZE 4 4 4
TYPE F F F
COUNT 1 1 1
WIDTH 1527
HEIGHT 1
VIEWPOINT 0 0 0 1 0 0 0
POINTS 1527
DATA ascii
1.4087877 -0.43612319 2.1517904
1.4126701 -0.4665274 2.1521287
1.4169213 -0.49642009 2.1521931
1.4216238 -0.52666694 2.1518097
1.4244304 -0.54726028 2.1586213
1.4407767 0.18787546 2.1328213
1.4382645 0.16079313 2.1284399
1.4356004 0.13172305 2.1237757
1.4321816 0.10242937 2.1217213
1.4282813 0.073154308 2.1215544
1.4242758 0.043483745 2.121994
1.4204918 0.013289667 2.1220844
1.4169899 -0.016710892 2.1220133
1.4136796 -0.046259373 2.1223989
1.4107546 -0.076061457 2.1223831
1.4084158 -0.10548976 2.1214516
1.406628 -0.13556303 2.1194878
1.4052824 -0.16562551 2.1173494
1.4041275 -0.19581401 2.1162992
1.4032935 -0.22645234 2.1160011
1.4027731 -0.25651056 2.1169751
1.402563 -0.28685716 2.119534
1.4028515 -0.31628817 2.1229796
1.4045043 -0.34628654 2.1222308
1.4066365 -0.37657681 2.122159
1.4092511 -0.40671006 2.1225319
1.4124807 -0.43655756 2.1219459
1.4161015 -0.46644059 2.1217103
1.4200954 -0.49666974 2.1221797
1.4231955 -0.52095133 2.1259904
1.4373021 0.099227145 2.1033926
1.4349939 0.071847089 2.0988543
1.4324143 0.042511132 2.0946212
1.4293911 0.012956048 2.0920427
1.4256754 -0.017292956 2.0919094
1.4223309 -0.046342675 2.0917804
1.419048 -0.076363124 2.0919895
1.416096 -0.10686774 2.0920455
1.4134549 -0.13653313 2.0926499
1.4115366 -0.16659059 2.0919755
1.4098364 -0.19635613 2.0922728
1.4088449 -0.22645715 2.0916667
1.4081395 -0.25639537 2.0921373
1.4081148 -0.28637049 2.0921946
1.408734 -0.31657475 2.0921092
1.4099882 -0.34662375 2.0918334
1.4116679 -0.37645119 2.0923619
1.4140863 -0.40659299 2.0920124
1.4169724 -0.43679872 2.0919428
1.4202181 -0.46654904 2.0921819
1.4226297 -0.49224204 2.0975137
1.4340706 0.0053650159 2.0744586
1.4321834 -0.018921115 2.0708084
1.4300334 -0.047537163 2.06672
1.4275594 -0.077549227 2.0637722
1.4252598 -0.10693321 2.0612848
1.422202 -0.13667497 2.062104
1.4198166 -0.16657561 2.0620279
1.4180213 -0.19679429 2.0613544
1.4164776 -0.22657354 2.0616224
1.4155699 -0.25653782 2.0614898
1.415253 -0.2867406 2.0612726
1.4153928 -0.3166011 2.061693
1.4161452 -0.34642372 2.0621181
1.417521 -0.37652457 2.0624609
1.4197445 -0.40647769 2.0613136
1.4214818 -0.4351072 2.0647774
1.4227449 -0.4601177 2.0716333
1.4302064 -0.11336355 2.0436325
1.4283237 -0.13866076 2.0417297
1.426685 -0.16747513 2.0388901
1.4251714 -0.19701274 2.0366533
1.4239974 -0.22718114 2.0345762
1.4230382 -0.25696453 2.0335228
1.4223006 -0.28660601 2.0336554
1.4220337 -0.3162584 2.0343003
1.4221373 -0.34615234 2.0359554
1.4224987 -0.37580088 2.0391898
1.4232296 -0.40169615 2.0424519
1.462742 0.47134432 2.4716785
1.4389057 -0.5372045 2.4725578
1.4418025 -0.55747348 2.472508
1.4967749 0.71927279 2.4504943
1.4943935 0.70190644 2.4496439
1.4903069 0.67245507 2.449697
1.4683419 0.52218682 2.4505014
1.4639548 0.49229318 2.4507105
1.4618649 0.47384623 2.4580541
1.4379683 -0.53934026 2.4644358
1.4392656 -0.55908304 2.4530106
1.4433407 -0.58731216 2.4510028
1.4480253 -0.61704081 2.4507866
1.4528524 -0.64709765 2.4505315
1.4578148 -0.67754507 2.4504769
1.4616526 -0.70183688 2.4489899
1.4958954 0.71796274 2.4257264
1.4935204 0.70207059 2.419677
1.4892653 0.67246902 2.419733
1.4848943 0.64294916 2.4198132
1.4803083 0.6125198 2.4201984
1.4756813 0.58221298 2.4203935
1.4712098 0.55308735 2.4205592
1.4665837 0.52298743 2.4206495
1.4622107 0.49419475 2.4212639
1.4365935 -0.56565368 2.4247391
1.4395912 -0.58675915 2.420897
1.4447157 -0.6172561 2.4209628
1.4498116 -0.64714307 2.4208198
1.4549454 -0.6769219 2.4207091
1.4596404 -0.70455325 2.4196067
1.4926184 0.70022988 2.390286
1.4885402 0.67262638 2.3896458
1.4839053 0.64206237 2.389854
1.4792066 0.61166257 2.3903449
1.4746003 0.58229613 2.3903844
1.4699937 0.55309618 2.3904924
1.4652317 0.52293205 2.3907042
1.4608318 0.49504694 2.390594
1.4349377 -0.5711602 2.4028182
1.4367 -0.58819479 2.3915789
1.4417895 -0.61750227 2.3909075
1.4472342 -0.64788532 2.3908541
1.4525825 -0.67755407 2.3904672
1.4578332 -0.70659494 2.3901513
1.491793 0.69716358 2.3608823
1.4880666 0.67230797 2.3593817
1.4833965 0.64183956 2.3603361
1.4787103 0.61197376 2.3602352
1.4740235 0.58249444 2.3603292
1.4691949 0.55236906 2.3602262
1.4643438 0.52210605 2.3608356
1.4598831 0.49434987 2.3601987
1.4345981 -0.5914017 2.3620772
1.4391558 -0.61683279 2.3609395
1.4448183 -0.64728534 2.3608537
1.4506053 -0.67803574 2.360796
1.4561749 -0.70772815 2.3602915
1.458994 -0.72325319 2.3585219
1.4909066 0.69174147 2.3320634
1.4878629 0.67139089 2.3298547
1.483346 0.64196533 2.3300865
1.4786841 0.61225057 2.3300447
1.4739558 0.5825485 2.3300729
1.469099 0.55234468 2.3306823
1.4643124 0.52264607 2.3306336
1.4594852 0.49268666 2.3307891
1.4565252 0.47392166 2.3237002
1.4328605 -0.59368533 2.3323808
1.4370755 -0.6165269 2.3310673
1.4428942 -0.64696139 2.3309193
1.4488466 -0.67770302 2.330801
1.4546193 -0.70751411 2.3304391
1.457594 -0.72312433 2.3293667
1.4905268 0.68826926 2.3100941
1.4881006 0.67099684 2.3010662
1.4837986 0.64242196 2.2998533
1.4791505 0.61236835 2.2997799
1.4744051 0.58230877 2.3005161
1.4696549 0.55239469 2.3004787
1.4648761 0.52243543 2.3002741
1.4600438 0.49242297 2.3011873
1.4563078 0.46839485 2.2983503
1.4313532 -0.59440112 2.3016472
1.4355596 -0.61645973 2.3011079
1.4414874 -0.64686638 2.3009546
1.4475617 -0.67762679 2.3007493
1.4534867 -0.70754248 2.3005657
1.4565364 -0.72318083 2.299278
1.4877865 0.6643998 2.2733908
1.4845556 0.64175057 2.2700028
1.4800978 0.61214596 2.2701707
1.47552 0.58220452 2.2701089
1.470896 0.55237681 2.2701812
1.4662355 0.52269673 2.2707074
1.4615453 0.49266323 2.2705202
1.456818 0.46273455 2.2710624
1.4539254 0.44110656 2.2639832
1.4302895 -0.59407008 2.2709212
1.4346372 -0.61651385 2.2712071
1.4406389 -0.64698195 2.2710242
1.4467927 -0.67779797 2.2707891
1.4527715 -0.70762944 2.2706525
1.4561061 -0.72329712 2.2821414
1.4875358 0.65770364 2.2534771
1.4854263 0.63917267 2.2427433
1.4817048 0.61208099 2.2396517
1.4773041 0.58226073 2.2402191
1.4728535 0.55231249 2.2403302
1.468343 0.52227974 2.240386
1.4638478 0.49265873 2.2406476
1.4592972 0.46257824 2.2406037
1.4548674 0.4334521 2.2406688
1.4520519 0.40902472 2.232615
1.4295678 -0.59194064 2.2403722
1.4343553 -0.61673695 2.2412624
1.4403673 -0.64722747 2.2410271
1.4463577 -0.67715931 2.2409732
1.4519607 -0.70504022 2.2408071
1.485329 0.62959164 2.222182
1.4832981 0.60948229 2.2128208
1.4797916 0.58209211 2.2098379
1.4756206 0.55240273 2.2101457
1.4713496 0.52231473 2.2103548
1.4670675 0.49241674 2.2103949
1.462755 0.46257815 2.210557
1.4583632 0.43263045 2.2109144
1.4540936 0.40265244 2.2103267
1.4508626 0.3758046 2.2058406
1.4488084 0.35376492 2.1988761
1.4265141 -0.57157487 2.1981418
1.429384 -0.5889225 2.210465
1.4348408 -0.61763227 2.2111599
1.4407145 -0.64769477 2.2112544
1.4466152 -0.6773622 2.210397
1.4515861 -0.70235521 2.2114003
1.483656 0.59909916 2.1934042
1.4818362 0.57895875 2.18609
1.47901 0.55173051 2.1804237
1.4752485 0.52234071 2.1799374
1.4711784 0.4921757 2.1804447
1.467221 0.46243587 2.1802609
1.4630848 0.4324784 2.1806529
1.4590336 0.40264064 2.180443
1.4547564 0.3728753 2.181267
1.450949 0.34332615 2.1796687
1.4483179 0.31560645 2.1735721
1.4461738 0.29255682 2.1686509
1.4266028 -0.5668112 2.1778188
1.430016 -0.58666331 2.1813498
1.4356405 -0.61678201 2.1810024
1.4414209 -0.64693058 2.1807506
1.4474018 -0.67763233 2.180675
1.4514945 -0.69890547 2.1832335
1.4807189 0.54434365 2.1613398
1.478675 0.52034491 2.1558819
1.4760859 0.49170497 2.150898
1.472684 0.46222073 2.1498475
1.468825 0.43229425 2.1505091
1.4650697 0.40239894 2.150357
1.4611264 0.37242192 2.1506679
1.4571978 0.34257299 2.1506946
1.4531884 0.31248149 2.150672
1.4492695 0.28357828 2.1506367
1.4466214 0.254796 2.1454785
1.4443477 0.22835095 2.1402566
1.4249129 -0.53988987 2.1379883
1.427235 -0.55964899 2.1496015
1.4319192 -0.58738548 2.1512899
1.4373363 -0.61736029 2.1511543
1.4429142 -0.64737737 2.1511211
1.4484712 -0.67664081 2.1507273
1.4514453 -0.69436383 2.1593564
1.4783589 0.48238379 2.1331947
1.4766523 0.46004587 2.1292114
1.4742888 0.43095207 2.124928
1.4719173 0.40187001 2.1208587
1.4686123 0.37216777 2.1200483
1.4648689 0.34261298 2.1206107
1.461169 0.31248069 2.1203439
1.4571896 0.28252473 2.1207621
1.4531357 0.25263178 2.1210475
1.4490914 0.22236846 2.1208458
1.445668 0.19372791 2.1190276
1.4431173 0.16422139 2.1138227
1.4409484 0.13871616 2.1092846
1.4258488 -0.53214729 2.1172023
1.4292465 -0.55673707 2.1215463
1.4341952 -0.58654124 2.1213186
1.4394704 -0.61687154 2.1207986
1.4449027 -0.64736915 2.1207228
1.4490929 -0.67121649 2.1227763
1.4751198 0.39168009 2.1039202
1.473532 0.36953995 2.1006949
1.471225 0.34053773 2.0972393
1.4689107 0.31152818 2.0936427
1.4663825 0.2820825 2.0903206
1.4625894 0.25253391 2.0905068
1.4586293 0.22246905 2.0905371
1.4545107 0.19244598 2.0906816
1.4503137 0.1630854 2.0910375
1.4460418 0.1328744 2.0911295
1.4428275 0.10433295 2.0887158
1.4401051 0.075090088 2.0846014
1.4377345 0.04652432 2.0799351
1.4358292 0.02398796 2.0765247
1.424031 -0.48006651 2.0774791
1.4253335 -0.50073522 2.0861764
1.4281697 -0.52691603 2.0914888
1.432549 -0.55674332 2.0914862
1.4373778 -0.58734071 2.0909419
1.4422574 -0.61720383 2.0908363
1.4470971 -0.64606643 2.0911775
1.4497141 -0.66529423 2.0994391
1.4708816 0.27296653 2.0731471
1.4689471 0.24922991 2.0702317
1.4664717 0.22132348 2.0671117
1.4640357 0.19183511 2.0629609
1.4608594 0.162202 2.0605049
1.4565879 0.13248353 2.0607438
1.4523134 0.10200229 2.0605597
1.4479313 0.072243638 2.0609803
1.4436408 0.042163607 2.0611539
1.4401364 0.012961328 2.0597241
1.4376389 -0.015865365 2.0558639
1.435112 -0.045228921 2.0523202
1.4330786 -0.071966402 2.0487936
1.4246132 -0.44210315 2.0512624
1.4258392 -0.46883479 2.059099
1.4287323 -0.49692142 2.0607076
1.4322971 -0.52676624 2.0617445
1.436569 -0.55735898 2.0609121
1.4408864 -0.58716536 2.0608664
1.4455162 -0.61746001 2.0607131
1.4483254 -0.63923615 2.0665398
1.4665822 0.15592414 2.0426486
1.4641242 0.13067767 2.0397389
1.4615819 0.10178576 2.0355382
1.4588916 0.071861595 2.0312405
1.4548371 0.042744882 2.0308161
1.4505056 0.012509339 2.0308402
1.4463986 -0.017569363 2.0306675
1.4423156 -0.046832453 2.0312004
1.4385347 -0.076668322 2.0313079
1.435653 -0.1060543 2.029737
1.4336867 -0.13650206 2.025939
1.4315659 -0.16612723 2.023833
1.4298277 -0.19586752 2.0216861
1.4284407 -0.22514841 2.0198777
1.4272418 -0.25692239 2.0186706
1.4263361 -0.28751707 2.0186546
1.4259205 -0.31859219 2.0191977
1.4258022 -0.34835947 2.0210783
1.4259709 -0.37787858 2.0244036
1.4266586 -0.40798053 2.0284412
1.4281461 -0.43688452 2.0310984
1.430593 -0.46699762 2.0319223
1.4338522 -0.49733999 2.0307593
1.4371376 -0.52718389 2.0312171
1.4408729 -0.55708873 2.0309136
1.4449494 -0.5874716 2.0305653
1.4474065 -0.61104923 2.0369644
1.4637834 0.058914382 2.0136697
1.4616271 0.038555007 2.0115082
1.4590999 0.01130964 2.0077481
1.4565543 -0.018330485 2.003268
1.4535246 -0.047768041 2.0003886
1.4492195 -0.077293068 2.0013006
1.4456329 -0.10702482 2.0008807
1.4422815 -0.13681322 2.0006256
1.4390155 -0.1671712 2.0010133
1.4360946 -0.1973004 2.0017223
1.433926 -0.22724502 2.001641
1.4322617 -0.25693473 2.0016489
1.4311426 -0.28682965 2.0016792
1.4306428 -0.3169024 2.0016274
1.4307092 -0.34697962 2.0017204
1.431339 -0.37702101 2.0019186
1.4327134 -0.40692633 2.0013003
1.4346495 -0.43710884 2.000448
1.4366896 -0.46717489 2.0011966
1.4393293 -0.49702305 2.0009818
1.4423401 -0.52746826 2.0010543
1.4454826 -0.55662721 2.0014942
1.4472306 -0.58087111 2.0088041
1.4590906 -0.056226932 1.9826152
1.4568121 -0.079388797 1.9801825
1.4545124 -0.10867602 1.9759605
1.452251 -0.13838272 1.9720547
1.4496385 -0.16730487 1.9701374
1.4461248 -0.19717792 1.971552
1.4435775 -0.22708212 1.9715049
1.4415901 -0.25713494 1.9712433
1.4401151 -0.28716916 1.9711179
1.4392087 -0.31722435 1.9710768
1.4388723 -0.34719282 1.9711398
1.4391028 -0.37717736 1.9712669
1.4398957 -0.40720782 1.9713651
1.4413968 -0.43731669 1.9706187
1.4431026 -0.46754766 1.9710033
1.4452282 -0.49676886 1.971068
1.4465156 -0.52516925 1.9769878
1.4477408 -0.5474624 1.9821773
1.4548676 -0.17495863 1.9529245
1.4531053 -0.19972725 1.9504533
1.4513339 -0.22881441 1.9476347
1.449805 -0.25831699 1.945227
1.4485314 -0.28793511 1.943491
1.4476306 -0.31753662 1.9422828
1.4469081 -0.34752646 1.9423193
1.4466785 -0.37724975 1.9426666
1.4466732 -0.4069429 1.9442766
1.4469852 -0.43640539 1.9467607
1.4474715 -0.46483094 1.9504836
1.4482414 -0.48640114 1.9528874
1.464319 -0.71666163 2.4519501
1.4675325 -0.73763782 2.4500477
1.4721971 -0.76741081 2.4496484
1.4769334 -0.79860306 2.4495845
1.4974271 0.7300536 2.4195468
1.4625028 -0.71970046 2.4229736
1.4654218 -0.73816055 2.4199293
1.4704041 -0.76794976 2.4199967
1.4946266 0.71466196 2.385896
1.4610302 -0.72130674 2.3985162
1.4634656 -0.73795384 2.3901238
1.4687458 -0.7681033 2.3899608
1.4938698 0.71157467 2.357384
1.4619642 -0.73874044 2.3602488
1.4672598 -0.76784098 2.3599703
1.4930518 0.70633805 2.3283155
1.4606183 -0.73874575 2.3301671
1.4660753 -0.76781565 2.3299186
1.4926941 0.70218617 2.2991443
1.4901794 0.68378973 2.2902601
1.459632 -0.73888409 2.300122
1.4652101 -0.76796114 2.2998867
1.4933057 0.70235318 2.2696304
1.4898695 0.67738068 2.2669075
1.4552873 -0.72118843 2.2574151
1.458824 -0.73812342 2.2699156
1.4646903 -0.76828331 2.2699552
1.4941895 0.70174438 2.239681
1.4901775 0.67188269 2.2393789
1.4875758 0.65058213 2.2328005
1.4550042 -0.72025639 2.2374377
1.458397 -0.73730743 2.2401304
1.4643155 -0.76764327 2.2399664
1.4955839 0.70173973 2.2090201
1.4917983 0.67193514 2.2098839
1.4879831 0.64219505 2.2091434
1.4856211 0.61976027 2.2015371
1.4546583 -0.71760982 2.2087891
1.4586509 -0.73791999 2.2100611
1.4644144 -0.76765919 2.2102523
1.4939573 0.67194337 2.1791556
1.4903667 0.6419639 2.179795
1.4867446 0.61206961 2.1795893
1.4842221 0.58567148 2.1729903
1.4822731 0.56365156 2.1669636
1.4543146 -0.71261603 2.1786547
1.4591581 -0.73775685 2.1801167
1.4649531 -0.76812333 2.1799221
1.4965373 0.67180985 2.148783
1.4933951 0.64189517 2.1493692
1.4901479 0.61211693 2.1497867
1.4868046 0.58173853 2.1496434
1.4837819 0.55312145 2.14818
1.481616 0.52500921 2.1417241
1.4797586 0.50211006 2.1375251
1.4516437 -0.69040769 2.1393981
1.4545931 -0.70849651 2.1494632
1.4600861 -0.73766613 2.1501117
1.4656761 -0.76776558 2.1500583
1.4711529 -0.79818141 2.149575
1.4994265 0.67168671 2.1194944
1.4969034 0.64182067 2.1189618
1.4940882 0.61165261 2.1196384
1.4913827 0.58190572 2.1190631
1.4883995 0.5521819 2.1195803
1.4852653 0.52176344 2.1199296
1.4823415 0.4924815 2.1193097
1.480302 0.46316421 2.1143413
1.4781021 0.43472633 2.1106663
1.4765184 0.41150209 2.1068888
1.4519874 -0.68540335 2.1181798
1.4558923 -0.70736414 2.1199713
1.4614284 -0.73775363 2.1200066
1.4668484 -0.76800257 2.1197774
1.4720253 -0.79795301 2.1199546
1.4758967 -0.82093805 2.120461
1.5047241 0.70135528 2.0887196
1.5028079 0.67162031 2.0889118
1.5006932 0.64166832 2.0895576
1.4985448 0.61163801 2.0895154
1.4963788 0.58170515 2.0889721
1.4938717 0.55153674 2.0896151
1.4914396 0.52178884 2.0894036
1.4888729 0.49185157 2.0892043
1.4861702 0.4622111 2.0891731
1.4829606 0.43193418 2.0903769
1.4801913 0.40227076 2.0895748
1.4781353 0.37290046 2.0859966
1.4760852 0.34408727 2.0824285
1.4738629 0.31493548 2.0790875
1.4723852 0.29381442 2.0761147
1.4502565 -0.65902662 2.0802968
1.452848 -0.67860609 2.0894768
1.4578558 -0.70778781 2.0904512
1.4630923 -0.73757547 2.0894642
1.4682252 -0.76790416 2.0900688
1.4732281 -0.79800469 2.0893867
1.4759074 -0.8164134 2.0971527
1.5078197 0.70155358 2.0581203
1.5065178 0.67153686 2.0581155
1.5049791 0.64157778 2.0590618
1.5034771 0.61160964 2.0588956
1.5018517 0.58170313 2.0588036
1.5000981 0.55189419 2.0587618
1.4980073 0.52169377 2.059504
1.4960335 0.49170461 2.059128
1.4936974 0.46147829 2.0595183
1.4912875 0.43183348 2.0597215
1.4888241 0.40188798 2.0594087
1.4862181 0.37198156 2.059015
1.4831119 0.34201911 2.0595679
1.4797733 0.31211334 2.0602024
1.4767984 0.28259337 2.0592477
1.4745649 0.25300896 2.0556054
1.4722317 0.22389764 2.051985
1.4698119 0.19522402 2.0483749
1.4680202 0.17525597 2.0459495
1.4491644 -0.63066292 2.0463562
1.4510406 -0.65076578 2.0582957
1.4551655 -0.67729807 2.0598862
1.4601672 -0.70794773 2.0600762
1.4650948 -0.73795617 2.0598354
1.4699613 -0.76809233 2.0594037
1.4738625 -0.79366171 2.0612268
1.5097297 0.70151764 2.0400429
1.5088545 0.67070627 2.0394866
1.5079589 0.64123797 2.0388613
1.5069685 0.61083966 2.0381494
1.5059197 0.58080781 2.0373175
1.5047672 0.55055755 2.0364501
1.5033667 0.52123481 2.0363493
1.502164 0.49112839 2.034729
1.5007077 0.46123749 2.0336506
1.4993192 0.43131438 2.0318308
1.4977641 0.40132096 2.0300846
1.495824 0.37179741 2.0290942
1.4931207 0.34148329 2.0295315
1.4902742 0.31176952 2.0297749
1.4873606 0.28182441 2.0293889
1.4841222 0.25185099 2.0291424
1.4803241 0.22196841 2.029701
1.4762148 0.19207014 2.0303981
1.4729825 0.16252258 2.0284081
1.4704423 0.13306986 2.0242839
1.4675773 0.10428583 2.0209844
1.4655429 0.080387786 2.0172577
1.4486855 -0.60048461 2.0161912
1.4501896 -0.6211738 2.0265801
1.4535909 -0.6479004 2.0305762
1.4581439 -0.67775542 2.0299249
1.4627256 -0.7078402 2.0298424
1.4673313 -0.73795861 2.029567
1.471732 -0.76763064 2.0301831
1.4742091 -0.78697294 2.0362236
1.5006043 0.36428419 2.0131061
1.4992765 0.33980563 2.0114379
1.497637 0.31038329 2.0090096
1.4957291 0.28103596 2.0066772
1.4938079 0.25108641 2.0035398
1.4913503 0.22084095 2.0010011
1.4882234 0.19169757 1.9997692
1.4845817 0.16178773 1.9989464
1.4801056 0.13201542 1.9997041
1.4755616 0.10181037 2.0000985
1.4713765 0.072124891 1.9995601
1.4681828 0.043648049 1.9968776
1.4652848 0.014034208 1.9930086
1.4627548 -0.014387553 1.9887413
1.4609272 -0.034798421 1.9857874
1.4487866 -0.56715685 1.9885222
1.4501525 -0.58985901 1.9969287
1.4531478 -0.61773914 2.0005317
1.4571726 -0.64745206 1.9999315
1.4613159 -0.67791903 2.0002427
1.4655588 -0.70796973 1.9997433
1.469804 -0.73799098 1.9991791
1.4727279 -0.76160157 2.0037766
1.4948108 0.18683435 1.9819767
1.4926604 0.16015117 1.9786344
1.4900143 0.13025196 1.9749581
1.4870558 0.10123691 1.9719019
1.483825 0.071764916 1.9690039
1.4790441 0.041793041 1.9694463
1.4741447 0.012433251 1.9703774
1.4698323 -0.017668566 1.9696997
1.4658546 -0.04705964 1.9686667
1.4628417 -0.077089615 1.9652557
1.4603878 -0.10660247 1.960991
1.4581447 -0.13382404 1.957454
1.4488596 -0.50757569 1.957207
1.4496801 -0.53037679 1.9627221
1.4510852 -0.55820322 1.9694459
1.4540042 -0.58772629 1.9705085
1.4574531 -0.61752659 1.9699178
1.4610828 -0.64785343 1.9697094
1.4647098 -0.67793721 1.9703966
1.4685897 -0.70790845 1.9694359
1.4717596 -0.73470247 1.9720082
1.4733994 -0.75522995 1.9836762
1.4904826 0.06602031 1.9509318
1.487632 0.0393994 1.9478097
1.4849119 0.010843157 1.943511
1.4818232 -0.018020811 1.9399239
1.4771463 -0.048562422 1.9396964
1.472459 -0.078577325 1.9400325
1.4682444 -0.10820905 1.9398172
1.4642252 -0.1374128 1.9398994
1.4609332 -0.16686647 1.9387106
1.4587665 -0.19638854 1.9352727
1.4567472 -0.22606778 1.9323695
1.4549782 -0.25589103 1.9299122
1.4534709 -0.28593588 1.9280715
1.4523028 -0.31716907 1.9267262
1.4513655 -0.34729689 1.9267176
1.4508817 -0.37888148 1.9271606
1.4506645 -0.40923685 1.928867
1.4507315 -0.43898344 1.9316329
1.4510815 -0.4685781 1.9354327
1.4518746 -0.49789754 1.9394473
1.4537327 -0.52758169 1.9405622
1.456165 -0.55770314 1.9406493
1.458999 -0.5875808 1.9398766
1.4620477 -0.61779648 1.9392724
1.4651002 -0.64788985 1.9398087
1.468327 -0.67803878 1.9402462
1.47112 -0.70530349 1.9426855
1.4725901 -0.72581124 1.9514241
1.4874183 -0.026450252 1.9229479
1.4851241 -0.050789583 1.9189997
1.4824631 -0.079156697 1.9144679
1.4797219 -0.10818707 1.910107
1.4755021 -0.13813759 1.9096729
1.4713736 -0.16808763 1.9097563
1.4676872 -0.19813137 1.9095813
1.4640726 -0.22812422 1.9104228
1.4613088 -0.25800091 1.910243
1.4590464 -0.28781691 1.910147
1.4573597 -0.31768766 1.9100127
1.45621 -0.34764832 1.9099824
1.4556212 -0.37765348 1.9099634
1.4555885 -0.40765339 1.9098806
1.4559287 -0.43766066 1.9102806
1.4567984 -0.46769768 1.9103909
1.4580983 -0.49769726 1.9103961
1.4597188 -0.52788287 1.9106573
1.4618416 -0.55779397 1.9098958
1.4642513 -0.58793658 1.9090335
1.4666848 -0.61798072 1.9092923
1.4692733 -0.64791775 1.9097918
1.4710424 -0.67470825 1.9156897
1.4721768 -0.69532222 1.9234452
1.4844128 -0.12006774 1.8933015
1.4825085 -0.14152645 1.8898575
1.4799782 -0.16967496 1.8858066
1.4777278 -0.19864401 1.8812982
1.4747393 -0.22787823 1.8796318
1.4715285 -0.25800863 1.8795489
1.4686384 -0.28784463 1.8801659
1.4663672 -0.31798172 1.8805628
1.4648521 -0.34789905 1.8804141
1.4638609 -0.37791985 1.8803476
1.4634156 -0.40791559 1.8802165
1.463322 -0.43789798 1.880608
1.4637892 -0.46789163 1.8805494
1.4646215 -0.49790338 1.8806306
1.4660476 -0.52782774 1.8795449
1.467676 -0.55803704 1.8789724
1.4694209 -0.58792931 1.8791084
1.4706472 -0.61638469 1.883382
1.4715409 -0.6410622 1.8898503
1.4801143 -0.23559019 1.861377
1.4783651 -0.25982678 1.8584557
1.4763101 -0.28902504 1.855907
1.4745749 -0.31860366 1.8537045
1.4731779 -0.34841308 1.8519555
1.4722474 -0.37804076 1.850327
1.4713838 -0.40803406 1.8501524
1.4708205 -0.43806958 1.8506591
1.4708403 -0.46790054 1.8506094
1.4708714 -0.49766257 1.8522534
1.4713168 -0.52719927 1.8537705
1.4717027 -0.55644196 1.8573756
1.4721636 -0.58139211 1.8613051
1.4756111 -0.40793964 1.8341614
1.4749749 -0.43541262 1.8341745
1.4760619 -0.81256187 2.0771046
1.4774441 -0.82370144 2.0871582
1.4761713 -0.8071987 2.0563028
1.478291 -0.82216436 2.0592291
1.5113709 0.70144767 2.0250337
1.5108567 0.67172945 2.0244663
1.5102254 0.64152485 2.0241408
1.5096092 0.61175644 2.0232892
1.5088924 0.58182496 2.0224891
1.5080612 0.55197793 2.0217264
1.5072196 0.5217607 2.0204344
1.5062317 0.4921515 2.0193441
1.5051794 0.46241114 2.0179424
1.5040128 0.43268535 2.016427
1.5028317 0.4045108 2.0147405
1.5017568 0.38421661 2.0139301
1.4745615 -0.78097677 2.016268
1.4765979 -0.80016094 2.0276618
1.4795977 -0.82217121 2.0297093
1.5144124 0.70135635 1.9979533
1.5143882 0.67132384 1.9981605
1.5142694 0.64122903 1.9984013
1.514063 0.61130452 1.9984763
1.5137559 0.5813936 1.9984142
1.5132473 0.55125082 1.9985651
1.5125949 0.52128857 1.9985747
1.5117466 0.49125755 1.9985902
1.5107197 0.46133384 1.9984996
1.5094409 0.43135956 1.9984876
1.5079582 0.40134782 1.9983317
1.5062916 0.37162852 1.997999
1.5049481 0.3418512 1.9959764
1.5034316 0.31210023 1.9937459
1.5017081 0.28200641 1.9912431
1.4999115 0.25358462 1.9886149
1.4977407 0.22678834 1.9867065
1.4749738 -0.77430755 1.9966046
1.4779944 -0.7981019 1.998409
1.5185591 0.67122263 1.9679221
1.5191346 0.64122432 1.9681971
1.5196054 0.6110549 1.96842
1.5199618 0.58102232 1.9684852
1.520133 0.55113244 1.9686242
1.5201075 0.52105606 1.9687569
1.5198859 0.49113497 1.9688013
1.5194248 0.46111506 1.9688277
1.5186883 0.43110612 1.9688958
1.5176928 0.40109491 1.968855
1.516404 0.37103525 1.9687672
1.5147613 0.34123847 1.9687762
1.512853 0.31125408 1.9685036
1.5105358 0.28124988 1.9683114
1.5075747 0.25119042 1.968721
1.5044006 0.22145644 1.9687623
1.5015429 0.19192462 1.9671949
1.4991552 0.16290849 1.96391
1.4965069 0.13327992 1.9604553
1.4940335 0.1056231 1.9567785
1.4739536 -0.74569857 1.9627028
1.4761713 -0.76833236 1.9695764
1.4798877 -0.79873002 1.9690605
1.5228047 0.67114246 1.9375107
1.5240928 0.64116377 1.9377773
1.5252762 0.61106628 1.9380335
1.5263031 0.58091849 1.9383025
1.5271759 0.55095369 1.938394
1.5276505 0.52136785 1.9391668
1.5274125 0.49128556 1.9415812
1.5271274 0.46119356 1.9429129
1.5264724 0.43094212 1.9443133
1.5258994 0.40104592 1.9443597
1.525054 0.37106198 1.9441928
1.523739 0.3406997 1.9442517
1.5226178 0.31081933 1.9427912
1.5210761 0.28071299 1.941365
1.5192428 0.25064206 1.9396099
1.5169472 0.22109465 1.9380792
1.5135919 0.19116689 1.938008
1.5094905 0.16086879 1.93866
1.5055692 0.13132448 1.9383454
1.5010271 0.10157106 1.9388075
1.4971797 0.072205767 1.9373168
1.4944931 0.042779546 1.9327126
1.4917054 0.013835025 1.9282955
1.4896983 -0.007224014 1.9249457
1.4734374 -0.71510756 1.9311857
1.4753041 -0.73867214 1.9385927
1.478523 -0.76814955 1.9391986
1.4817626 -0.79817659 1.9392755
1.5248499 0.70112866 1.9080791
1.5269706 0.67077118 1.9077684
1.5290793 0.6409421 1.9071704
1.5302926 0.61222965 1.9106473
1.5308229 0.58289689 1.9162593
1.5312679 0.55447787 1.92019
1.5315673 0.53399992 1.9222246
1.523208 0.21584895 1.9215953
1.5213966 0.18937947 1.918849
1.5191563 0.15992559 1.9154776
1.5164981 0.12998813 1.9121436
1.513589 0.10043159 1.9088286
1.5093799 0.071629785 1.9082984
1.5041956 0.0412561 1.909088
1.499644 0.011813568 1.9084835
1.4950337 -0.017693337 1.907887
1.4918092 -0.047616083 1.903753
1.4885706 -0.076489925 1.900169
1.4864066 -0.098738559 1.8966922
1.4724447 -0.66194475 1.8958054
1.4733827 -0.68255371 1.9029864
1.4751163 -0.70852894 1.9092697
1.4781058 -0.73831826 1.9085904
1.4809986 -0.76834089 1.9088415
1.5282787 0.7009021 1.8782412
1.5306364 0.67244303 1.8798525
1.5319232 0.64635128 1.8866327
1.5194308 0.089211024 1.8910481
1.5170053 0.067170069 1.8885996
1.5142179 0.03971839 1.8846397
1.5112267 0.0099505885 1.8798904
1.5069729 -0.019207425 1.8782185
1.501932 -0.048981093 1.8781825
1.4967917 -0.078460686 1.8786769
1.491679 -0.10833001 1.8792906
1.4884603 -0.13751864 1.8757367
1.485877 -0.1663973 1.8710821
1.483366 -0.19466291 1.8670285
1.4725783 -0.60034817 1.8650153
1.4731901 -0.62172848 1.8695905
1.4741223 -0.64984441 1.876698
1.4759296 -0.67823142 1.8796329
1.4783732 -0.70827156 1.8797811
1.4809787 -0.73859352 1.8790755
1.4835038 -0.76886636 1.8789299
1.5284148 0.72965908 1.8480629
1.5309569 0.70360774 1.8512894
1.5322624 0.6817742 1.8603907
1.5162666 -0.0037444301 1.8619941
1.5141361 -0.022959711 1.8590474
1.5113703 -0.050006554 1.8542004
1.5080508 -0.079463698 1.849637
1.5030946 -0.10880051 1.8495039
1.4984758 -0.13845411 1.8487689
1.4936931 -0.16863111 1.8488702
1.4892415 -0.19868855 1.8489851
1.4859979 -0.22749524 1.8471457
1.4835231 -0.2572163 1.8437825
1.4814029 -0.28751674 1.8403947
1.4795836 -0.31575656 1.8380736
1.477788 -0.34503818 1.8369298
1.4741921 -0.48052427 1.8363993
1.4741884 -0.50107944 1.8373679
1.4743603 -0.530635 1.8393314
1.474612 -0.5593468 1.8426063
1.475001 -0.5888446 1.8472862
1.4762652 -0.61819434 1.8486392
1.4779813 -0.64827466 1.8487499
1.4798265 -0.67827427 1.8490293
1.4818029 -0.70826364 1.8491714
1.4838526 -0.7383889 1.8493172
1.4859365 -0.76838982 1.8490571
1.5303584 0.73268509 1.8207358
1.5318316 0.71389061 1.8310539
1.5127429 -0.090643711 1.8324643
1.5104625 -0.11166717 1.8288008
1.5075439 -0.14041433 1.8234031
1.5044065 -0.16931038 1.8188474
1.5001031 -0.1985621 1.8180538
1.4956404 -0.2287171 1.8183005
1.4918549 -0.2584784 1.817939
1.4881895 -0.28816262 1.8186998
1.4850022 -0.31856436 1.8194386
1.4824166 -0.34840202 1.8201971
1.4806499 -0.37830177 1.8199681
1.4796253 -0.40823364 1.8187935
1.478621 -0.43841732 1.8192668
1.4780225 -0.46829432 1.8198872
1.4778949 -0.49825236 1.8201983
1.4783484 -0.52796882 1.8193436
1.4789474 -0.55825245 1.8192866
1.4798234 -0.58823383 1.8191423
1.4809284 -0.61837035 1.8190035
1.4821758 -0.64839798 1.8191735
1.4837065 -0.67845643 1.8183784
1.485239 -0.70841956 1.8183631
1.4868451 -0.73840922 1.818307
1.488456 -0.76833451 1.8183726
1.4900473 -0.7984218 1.8185302
1.5091351 -0.17925106 1.8007643
1.5069276 -0.20127159 1.7968795
1.5043496 -0.230078 1.7913857
1.5012152 -0.2589705 1.7884512
1.4972296 -0.28879416 1.789169
1.4940243 -0.31857428 1.7890071
1.4911324 -0.348524 1.7894949
1.4889776 -0.37844059 1.7892056
1.4872586 -0.40842852 1.7890842
1.4858705 -0.43842179 1.7894585
1.4850807 -0.4684445 1.7890528
1.4844776 -0.49841681 1.7894902
1.4843901 -0.5283612 1.7890861
1.4844404 -0.55842948 1.7895077
1.4848694 -0.58847827 1.7893443
1.4855214 -0.61850208 1.7891796
1.4863092 -0.64849716 1.7893981
1.4873893 -0.67831904 1.78855
1.4884986 -0.70841193 1.7883993
1.4896662 -0.73845208 1.788416
1.4908705 -0.76849389 1.7884067
1.4920639 -0.79851729 1.7884365
1.4929228 -0.82185113 1.7894654
1.5056759 -0.26570714 1.7710501
1.5036258 -0.29086849 1.7668936
1.5014757 -0.31988871 1.7624657
1.4994497 -0.34916291 1.7588596
1.4970546 -0.37874031 1.7581615
1.4949703 -0.40864685 1.7579339
1.4931617 -0.43861833 1.7583591
1.491959 -0.46859756 1.7578794
1.4908912 -0.49858621 1.7584753
1.4903717 -0.52860522 1.7579858
1.4899818 -0.55857062 1.7583704
1.4899465 -0.58857423 1.7582469
1.4901479 -0.61861449 1.7580292
1.4904743 -0.6486091 1.7582901
1.4909985 -0.6785568 1.7583218
1.4916601 -0.70861083 1.7582783
1.4924155 -0.73876083 1.7581977
1.4929376 -0.76763934 1.7614554
1.4933132 -0.79528403 1.767683
1.4936126 -0.8148182 1.7727929
1.5030117 -0.35992512 1.7412336
1.5016291 -0.38167715 1.7389071
1.5000855 -0.40997374 1.7359864
1.4986756 -0.43939865 1.7335675
1.4975441 -0.46915811 1.7312112
1.4964958 -0.49893424 1.7299429
1.4957527 -0.52902865 1.7284788
1.4950776 -0.5587101 1.728195
1.4946269 -0.58857071 1.7280467
1.4942453 -0.61857635 1.7289803
1.4939665 -0.6481905 1.7308881
1.4938977 -0.67819184 1.7328432
1.4938744 -0.70753437 1.7360915
1.4939272 -0.73236376 1.7395769
1.5315601 0.51311696 1.9247905
1.5316482 0.4891119 1.926445
1.5317906 0.45937815 1.9273204
1.5316582 0.43078759 1.9279835
1.531305 0.40061945 1.9282529
1.5307313 0.37088165 1.9280965
1.5297617 0.34118882 1.9279712
1.5286865 0.31099111 1.9269478
1.5272356 0.28329745 1.9262106
1.52574 0.25767294 1.9250557
1.5332568 0.6068095 1.8966143
1.5341126 0.57955128 1.9013296
1.5348653 0.55003977 1.9054658
1.5356197 0.52058649 1.9079835
1.5366472 0.49070361 1.9082307
1.5375805 0.46097571 1.9077504
1.5381888 0.43062875 1.9073411
1.5385472 0.40050659 1.906621
1.5383353 0.37067023 1.9064581
1.5376641 0.34060633 1.9063847
1.5364735 0.31069577 1.906467
1.5343473 0.28077242 1.9076515
1.5318173 0.25070617 1.9084784
1.529816 0.22123225 1.9068649
1.5278428 0.19137898 1.9039614
1.5255069 0.16160835 1.9009292
1.5231959 0.13268623 1.8972324
1.5212481 0.10967913 1.8940415
1.5332977 0.66258311 1.8673091
1.5344539 0.63894129 1.874557
1.5364603 0.61053205 1.8776211
1.5390965 0.58058023 1.8767905
1.5413392 0.55071473 1.8769698
1.5433388 0.52057272 1.8771869
1.5450526 0.49039581 1.8773742
1.5464348 0.46036088 1.8775162
1.5474473 0.43037659 1.8776643
1.5483555 0.40053174 1.8768882
1.5486645 0.37029895 1.8766726
1.5483838 0.34040371 1.8767921
1.5476072 0.31048289 1.8768537
1.5461428 0.28025839 1.8772299
1.5440553 0.25049159 1.8777796
1.541658 0.22049209 1.8776162
1.5386934 0.19057415 1.8774965
1.5352401 0.16069202 1.8773451
1.5313648 0.1307966 1.8771486
1.5270886 0.10072511 1.8769697
1.5239819 0.071783856 1.8737195
1.5208756 0.042962484 1.8699687
1.518294 0.018062027 1.8661332
1.5332993 0.69386083 1.8401207
1.5352447 0.67036319 1.846611
1.5385063 0.64058775 1.8474138
1.5417792 0.61051989 1.8476028
1.5450974 0.5803656 1.846774
1.5480152 0.55028546 1.8469393
1.550661 0.52032644 1.8470788
1.5528833 0.49056226 1.847592
1.5537935 0.46118188 1.8514553
1.5542017 0.43104413 1.8553753
1.5544261 0.40130833 1.8580142
1.5544306 0.37166327 1.8596739
1.554057 0.3425394 1.8608925
1.5534165 0.31120309 1.8612159
1.5524015 0.27760789 1.8605363
1.5510929 0.24794523 1.8594217
1.5495557 0.21844886 1.8574595
1.5476463 0.18901911 1.8550783
1.5455064 0.15938532 1.8519579
1.5430257 0.12974401 1.8485625
1.5393986 0.10064305 1.8472159
1.5346483 0.070686713 1.8474993
1.5296867 0.041221991 1.8478434
1.5245061 0.010799164 1.8478642
1.5207601 -0.01852048 1.844489
1.5177475 -0.046807986 1.8395151
1.515175 -0.070406653 1.8354149
1.5326296 0.72216678 1.8104417
1.5348924 0.70057642 1.8173261
1.5389491 0.67064816 1.8169364
1.5429503 0.64058983 1.8171961
1.5468749 0.61048084 1.8173819
1.5507767 0.58003026 1.8170227
1.5539699 0.55131286 1.818071
1.5555594 0.52314246 1.8248109
1.5564874 0.49990717 1.8303173
1.548123 0.11718461 1.8316566
1.546136 0.097476393 1.829405
1.5435612 0.069072857 1.8247797
1.5404038 0.038891874 1.8201593
1.5367192 0.0097470013 1.8167127
1.5311375 -0.019642923 1.8176513
1.5258979 -0.048937004 1.8175435
1.5204196 -0.079150677 1.817613
1.5165654 -0.10818076 1.8140541
1.5135311 -0.13639726 1.8088304
1.5112371 -0.15896779 1.80442
1.537766 0.70060056 1.7880098
1.5424838 0.6702432 1.7873309
1.5471456 0.64041626 1.7867194
1.5516875 0.61028785 1.7868673
1.5549893 0.58356386 1.7904688
1.5567102 0.56143183 1.7978894
1.5428259 0.0030108308 1.7977773
1.539719 -0.021392688 1.7943013
1.5364963 -0.05022179 1.7886465
1.5315917 -0.079097398 1.7874113
1.5262145 -0.10936387 1.7868525
1.5206318 -0.13881299 1.7875968
1.5154345 -0.16853763 1.7876244
1.5121481 -0.1976832 1.7829498
1.5094039 -0.2249825 1.7781225
1.5073457 -0.24572214 1.7747712
1.4937774 -0.82642114 1.7767797
1.5404947 0.70061213 1.7573543
1.5456346 0.67073572 1.7570119
1.5509722 0.64038807 1.7559773
1.5548893 0.61441374 1.7597022
1.5567117 0.59444869 1.7698069
1.5409622 -0.062047664 1.7701088
1.5387063 -0.082178876 1.7656842
1.5353277 -0.11083471 1.7597104
1.5308659 -0.13992693 1.7568035
1.5252271 -0.16918692 1.757811
1.5200474 -0.1991785 1.7577201
1.5150248 -0.22921118 1.7580584
1.5111321 -0.25828084 1.7563508
1.5084065 -0.2875928 1.7517819
1.5060583 -0.31619766 1.747443
1.5042664 -0.33990723 1.7441968
1.4941216 -0.77282065 1.7472227
1.4943614 -0.80067301 1.7534195
1.4946547 -0.82229358 1.7576987
1.5429368 0.70041972 1.7265831
1.548534 0.67030483 1.7269084
1.5536011 0.64264739 1.7281023
1.5560169 0.62352878 1.7384144
1.5364312 -0.14460389 1.7367396
1.5333947 -0.17174084 1.7301589
1.5293648 -0.19930656 1.7270015
1.5241678 -0.22925799 1.7272284
1.5193487 -0.25926381 1.7272928
1.5149534 -0.28910562 1.7274204
1.510951 -0.31915703 1.7276902
1.5076748 -0.34882784 1.7271662
1.5053089 -0.3782025 1.7248564
1.503536 -0.40795624 1.7215132
1.5019095 -0.43766946 1.7190189
1.5005308 -0.46725824 1.7169162
1.4993517 -0.49688819 1.7152534
1.4983621 -0.52469772 1.7144246
1.4964114 -0.60196358 1.7144649
1.4961739 -0.61981255 1.7146153
1.4957463 -0.65066659 1.7162207
1.495463 -0.67974764 1.7184888
1.4952592 -0.70982647 1.7219324
1.4951888 -0.73999339 1.7259852
1.4954116 -0.76898271 1.7279003
1.4958348 -0.79873627 1.7278799
1.5448189 0.70059544 1.6975287
1.5509017 0.67038882 1.696786
1.5544823 0.65009546 1.7031313
1.5340143 -0.20495741 1.707083
1.5311751 -0.23101747 1.7005669
1.5272101 -0.25928423 1.6976967
1.5226581 -0.28924403 1.6974334
1.5183272 -0.3191641 1.6980922
1.5146835 -0.34903371 1.6977862
1.5112883 -0.37899742 1.6983581
1.5084789 -0.40905249 1.6982342
1.5060222 -0.4389745 1.698438
1.5039788 -0.46894017 1.6984149
1.5022403 -0.49888077 1.6986219
1.5008913 -0.52879828 1.698344
1.4996942 -0.55871189 1.6988863
1.4988916 -0.58886957 1.6984427
1.4982251 -0.61877155 1.6986475
1.4977611 -0.64867282 1.6988438
1.4975188 -0.67891139 1.6985118
1.4973797 -0.70897269 1.6984824
1.4973369 -0.73867494 1.6986088
1.497371 -0.76853055 1.6987828
1.4974694 -0.79869145 1.6986395
1.5464485 0.70026851 1.66764
1.5520494 0.67338526 1.6684209
1.5315596 -0.2635828 1.6770207
1.5287167 -0.29097775 1.670369
1.5251449 -0.31944019 1.6676345
1.5210217 -0.34934211 1.6684277
1.517562 -0.37928537 1.6680852
1.51432 -0.40916455 1.6688035
1.5116831 -0.43928254 1.668258
1.509369 -0.46917292 1.6679511
1.5073792 -0.49905464 1.6676561
1.5055928 -0.52899039 1.667924
1.5041137 -0.55898386 1.6679794
1.5029141 -0.58895743 1.6677426
1.5018448 -0.61884779 1.6682961
1.5010668 -0.64895964 1.6679717
1.5004324 -0.67898202 1.6678514
1.4999067 -0.70875835 1.6682019
1.4995281 -0.73875546 1.6681974
1.4992509 -0.7690441 1.6678798
1.5474817 0.70071191 1.6373354
1.5521158 0.6791293 1.6390789
1.5308752 -0.30293417 1.6515278
1.5288177 -0.3234576 1.6466404
1.5263537 -0.35087287 1.639519
1.522969 -0.37941131 1.6384866
1.5197504 -0.40944684 1.6375874
1.5168116 -0.43910646 1.6374109
1.5142332 -0.46910107 1.6369135
1.5119226 -0.49915567 1.6366026
1.5097886 -0.52900779 1.6372514
1.5080402 -0.55913937 1.6368144
1.5064352 -0.58899522 1.6373241
1.505105 -0.61898166 1.6372987
1.5039749 -0.64910591 1.6371011
1.5029771 -0.67887306 1.637536
1.5021658 -0.7089439 1.6374006
1.501478 -0.73915142 1.637138
1.5008709 -0.76890302 1.6373792
1.5483621 0.69982564 1.6061411
1.5521271 0.68236947 1.6128005
1.5280336 -0.36132306 1.6214503
1.5262247 -0.38286662 1.615489
1.5241045 -0.41035253 1.6075954
1.5211337 -0.43924898 1.6067073
1.5182724 -0.46930894 1.606405
1.5155983 -0.49923941 1.6071656
1.5133173 -0.52933437 1.6068285
1.5112211 -0.55913842 1.607329
1.5093911 -0.58905745 1.607498
1.5077921 -0.61917943 1.6072938
1.5063475 -0.648938 1.6078217
1.5051192 -0.67915219 1.6075009
1.5040177 -0.70916861 1.6076306
1.5030532 -0.73880768 1.6079508
1.5022081 -0.76899469 1.6077814
1.54818 0.701572 1.576594
1.5253521 -0.42058015 1.5887125
1.5236809 -0.4424156 1.5823736
1.5214509 -0.46961105 1.5771657
1.5187417 -0.49943259 1.5765936
1.5161871 -0.52922338 1.5771797
1.5139042 -0.5591926 1.5773749
1.5118564 -0.58926582 1.5773468
1.5099949 -0.61904806 1.5779266
1.5083646 -0.64926291 1.5775108
1.5068803 -0.6790278 1.5778949
1.5055512 -0.70892006 1.5782443
1.5043753 -0.73925555 1.5777977
1.5033077 -0.76896822 1.5781189
1.5475595 0.70343584 1.5469739
1.5225652 -0.4769555 1.5568998
1.520808 -0.5011003 1.5496457
1.5184911 -0.52940506 1.5468488
1.5160315 -0.55930573 1.5473084
1.5137999 -0.58913672 1.5477743
1.5117873 -0.61930615 1.5475073
1.5099456 -0.6490221 1.5481229
1.5082873 -0.6792534 1.5478833
1.5067704 -0.70928288 1.5482053
1.5054147 -0.73891997 1.548576
1.5041747 -0.76925009 1.5481462
1.5468316 0.70408154 1.5169938
1.5210721 -0.51182514 1.5306545
1.5196152 -0.53258979 1.523169
1.5176321 -0.55939275 1.5172029
1.5152762 -0.5893206 1.5175502
1.5131214 -0.61917496 1.5180327
1.5111508 -0.6493609 1.5177824
1.5093623 -0.67891866 1.5182934
1.5077049 -0.70917195 1.5183052
1.506186 -0.73938042 1.5185264
1.50483 -0.76884943 1.518847
1.5458413 0.70437324 1.4871423
1.5179814 -0.56549209 1.495435
1.5162628 -0.58979088 1.4877323
1.5140654 -0.61919808 1.4878325
1.5119876 -0.64932573 1.4881716
1.5100745 -0.67954665 1.4882474
1.5083628 -0.70885897 1.4886085
1.5067352 -0.73940963 1.4882026
1.5052642 -0.76938254 1.487716
1.5445756 0.70449263 1.4572866
1.5161433 -0.5976572 1.4652222
1.5145549 -0.62008274 1.458107
1.5125173 -0.64896047 1.4581575
1.5105402 -0.67919707 1.4584256
1.5087011 -0.70973241 1.4580261
1.5070956 -0.73858684 1.4575136
1.505528 -0.76912671 1.4566166
1.5432758 0.70318997 1.4268882
1.5142218 -0.62730765 1.4336596
1.5126684 -0.64950418 1.4282336
1.5107092 -0.67913491 1.4285772
1.5088801 -0.70895725 1.4268236
1.5071589 -0.73923498 1.4267251
1.5055951 -0.76895982 1.427205
1.5417069 0.70162803 1.3960794
1.5122216 -0.65489942 1.4013562
1.5106077 -0.67915207 1.39757
1.5087516 -0.70941234 1.3966225
1.5070307 -0.73972416 1.3968782
1.5054922 -0.76893437 1.3970958
1.5399079 0.70040458 1.3667741
1.5423142 0.6830616 1.358548
1.5115266 -0.66220754 1.3797832
1.5101688 -0.68094969 1.3680842
1.5084865 -0.70866627 1.3667583
1.5067937 -0.73900872 1.3670259
1.5052179 -0.76937157 1.3672626
1.5376139 0.70081812 1.3373973
1.5406103 0.68046951 1.3335271
1.5092214 -0.68860561 1.3405188
1.5079796 -0.70896202 1.3369211
1.5063407 -0.73934382 1.3371916
1.5048132 -0.76974481 1.337431
1.5351624 0.70080954 1.3071879
1.5386896 0.6762085 1.3055419
1.5085161 -0.69333339 1.3207116
1.5072305 -0.71144795 1.3085276
1.5057993 -0.73876131 1.3075627
1.5043327 -0.76918155 1.3074049
1.5327079 0.69988447 1.2770619
1.5365267 0.67125851 1.2766019
1.5379078 0.65277392 1.2664208
1.5061717 -0.7181018 1.28048
1.5051041 -0.73870277 1.2775525
1.5037296 -0.7692017 1.2777736
1.5299432 0.70087057 1.2472892
1.5335921 0.67010552 1.2470082
1.5360174 0.6471833 1.2441602
1.5053724 -0.72298324 1.2602421
1.504261 -0.74075329 1.2490439
1.5030539 -0.76901221 1.2482139
1.5018471 -0.79955208 1.2478635
1.5303242 0.67100281 1.2172323
1.5334159 0.64089859 1.2167078
1.534587 0.62026566 1.209327
1.5032802 -0.74764812 1.2242885
1.5023152 -0.76857573 1.2182194
1.5012209 -0.79913205 1.2182827
1.5245916 0.7004723 1.1874237
1.5272391 0.67007673 1.1872435
1.5299222 0.64020401 1.1874876
1.5321491 0.61200809 1.1855373
1.5325766 0.59169394 1.1764083
1.5015494 -0.77437395 1.1966661
1.5005689 -0.7999351 1.1906537
1.4998052 -0.82261705 1.1880133
1.5240358 0.6709953 1.1571791
1.526252 0.64091617 1.1573861
1.5284358 0.61060327 1.1572099
1.5302835 0.5816642 1.1557977
1.530561 0.5579704 1.147387
1.5259668 0.60991955 1.1385283
1.5276505 0.58119661 1.1379297
1.5294353 0.551386 1.1379623
1.5299753 0.53426522 1.1353269
1.557537 0.47855297 1.8332314
1.5581745 0.4582743 1.8362771
1.55896 0.42954651 1.8395385
1.5593563 0.39963639 1.842496
1.5596035 0.3698709 1.8441427
1.5594053 0.34004915 1.8454324
1.5590554 0.3101368 1.8455012
1.5583255 0.28044984 1.8450094
1.557227 0.25060925 1.8438671
1.5558147 0.22102484 1.8420264
1.5540588 0.19142254 1.8395683
1.5520321 0.16215685 1.8365421
1.5499647 0.13689622 1.8337865
1.5579714 0.5408414 1.8046052
1.5593311 0.51777756 1.8104575
1.560985 0.48964167 1.8155611
1.5635054 0.46000752 1.8158242
1.5657581 0.42988449 1.8156636
1.5674109 0.39988247 1.8159484
1.5685992 0.36994019 1.8160502
1.5692909 0.33990011 1.8159773
1.5693725 0.30978292 1.815943
1.5687406 0.27979398 1.8160948
1.5674831 0.24987544 1.8161079
1.5655768 0.2197949 1.8160086
1.5630038 0.18968028 1.8158931
1.5597928 0.15966736 1.8158571
1.5559484 0.12965077 1.8160475
1.5525466 0.10053998 1.8142527
1.5498283 0.070837148 1.8095249
1.5470617 0.043225095 1.8049741
1.5448349 0.023563268 1.802027
1.5583912 0.57425189 1.7783315
1.5606719 0.5494296 1.7850969
1.5643263 0.51997256 1.785941
1.5678855 0.48991466 1.7859062
1.571044 0.45984325 1.785905
1.5737495 0.42977297 1.785954
1.5759159 0.39980364 1.786134
1.5774194 0.3701134 1.7866877
1.5777501 0.34012967 1.7892231
1.5775447 0.3099333 1.7912282
1.5770273 0.27934086 1.7919034
1.5760584 0.24911676 1.7917359
1.5748228 0.21900935 1.7902737
1.573107 0.18909021 1.7882608
1.5707959 0.15983181 1.7863488
1.5672203 0.13009103 1.7862694
1.5631195 0.099980406 1.7861078
1.5585169 0.069808021 1.7860956
1.5535798 0.039772648 1.7860812
1.5491843 0.010870401 1.7844032
1.5459456 -0.018003402 1.7790591
1.54324 -0.041725941 1.7744217
1.5580461 0.60326421 1.7502733
1.5610732 0.58000755 1.7559719
1.5657836 0.54996103 1.755983
1.5702142 0.51979029 1.7559859
1.5742713 0.48974645 1.7559959
1.57795 0.45974907 1.7558243
1.5798744 0.43133661 1.7606204
1.5809479 0.40321496 1.7662865
1.5815952 0.38107148 1.7698046
1.5758302 0.15049599 1.7692138
1.5740297 0.1272603 1.7661675
1.5714499 0.098919429 1.7623843
1.5686846 0.069436274 1.7574143
1.5643253 0.040061828 1.7560951
1.5590682 0.0099599482 1.7561634
1.553607 -0.019969439 1.756234
1.5481094 -0.049569737 1.7561409
1.5442384 -0.077845223 1.7517673
1.5411021 -0.10417915 1.7460983
1.5568795 0.63040143 1.7187692
1.5599309 0.60983753 1.7259485
1.5653067 0.57995105 1.7261143
1.5705206 0.54987413 1.7259458
1.5754302 0.51973492 1.7258644
1.5794827 0.49098617 1.7274501
1.5813637 0.46601596 1.7357712
1.5727627 0.05771115 1.7397243
1.5705347 0.036768347 1.7358322
1.5675232 0.008469373 1.7297403
1.5634686 -0.020113088 1.7260031
1.5577793 -0.050064117 1.7261695
1.552018 -0.079825282 1.7263383
1.5462642 -0.10939786 1.7265068
1.5417911 -0.13756728 1.7234886
1.5386398 -0.1643769 1.7170643
1.5577065 0.63728654 1.6950322
1.5630325 0.61012912 1.6961353
1.5688998 0.58000511 1.6959721
1.5745347 0.54988652 1.6957484
1.5793236 0.52146316 1.697413
1.5816311 0.50006616 1.706203
1.5683846 -0.026069716 1.7060254
1.5652786 -0.052261651 1.6993996
1.5608045 -0.080327235 1.6959343
1.5549278 -0.11007802 1.6962034
1.549108 -0.13964014 1.6964697
1.5432576 -0.16946767 1.697001
1.5388513 -0.19817817 1.6935105
1.535645 -0.22513822 1.687167
1.5552574 0.65979826 1.6626228
1.5592154 0.6400848 1.6667005
1.5656155 0.60974443 1.6663674
1.5717996 0.57981032 1.6657741
1.5776721 0.55007297 1.6656822
1.5807171 0.52978265 1.6737845
1.5653658 -0.085955501 1.674395
1.5619898 -0.11191794 1.6671972
1.5566885 -0.14040938 1.665966
1.5508766 -0.16994514 1.6663278
1.5451692 -0.19948998 1.6668303
1.5396364 -0.22972992 1.6669602
1.5355356 -0.25820923 1.663316
1.532822 -0.28274298 1.657305
1.5555354 0.66406024 1.6360874
1.5608017 0.64006495 1.6366872
1.5673964 0.61006248 1.6358089
1.5739287 0.57951266 1.6355247
1.578755 0.55562198 1.637255
1.5644413 -0.12225937 1.6473411
1.5617498 -0.14382933 1.6396502
1.5572703 -0.17075174 1.6356934
1.5515492 -0.20024976 1.6361431
1.5460429 -0.22959039 1.6365745
1.540633 -0.25957975 1.6372293
1.5356859 -0.28969729 1.6370574
1.5321811 -0.31726766 1.6331396
1.5298704 -0.34098262 1.6269257
1.5553546 0.6684947 1.6065778
1.5617889 0.63996983 1.6065005
1.56861 0.60951173 1.6059878
1.5751729 0.57959741 1.6050953
1.5789775 0.56130385 1.6082655
1.5606577 -0.17544502 1.6116892
1.5567746 -0.20084742 1.6054
1.5511754 -0.23049954 1.6059717
1.5458764 -0.25981236 1.6064718
1.5407439 -0.28962302 1.6072282
1.5360358 -0.31982514 1.6071122
1.5317647 -0.34911811 1.6074606
1.5288519 -0.37680095 1.6022781
1.5268286 -0.40157431 1.5946093
1.5514883 0.68678224 1.5703145
1.5552255 0.67029661 1.5766194
1.5621243 0.63999861 1.5768193
1.5689265 0.60991114 1.5756555
1.5753493 0.5808866 1.5753139
1.5789411 0.56388193 1.58832
1.5590284 -0.20666091 1.5813576
1.5553057 -0.2303991 1.575662
1.5499294 -0.26047415 1.5757016
1.5448532 -0.28994325 1.5764099
1.540058 -0.31957671 1.5771984
1.5356209 -0.34978962 1.5771492
1.5315193 -0.37955031 1.5778466
1.5280375 -0.40877113 1.5767148
1.5257014 -0.4363693 1.568972
1.5239781 -0.45769864 1.5631113
1.5508981 0.68833447 1.5447836
1.5550836 0.66993028 1.5465331
1.5619533 0.63970363 1.5465348
1.5685837 0.61024779 1.5454986
1.5746999 0.58262253 1.5455103
1.5571692 -0.23466067 1.5495219
1.5529356 -0.2602345 1.5460453
1.5478647 -0.29042032 1.5456202
1.5430998 -0.31995943 1.5464196
1.5386455 -0.34950334 1.5472115
1.5344923 -0.37972754 1.5472438
1.5307027 -0.40940091 1.5476841
1.527276 -0.43965694 1.5466206
1.5244395 -0.4680658 1.5439856
1.5224819 -0.49263403 1.5370796
1.5499647 0.68969911 1.5157354
1.554359 0.67006427 1.5163065
1.5611424 0.63987035 1.5165594
1.5676759 0.6103729 1.5154006
1.5736055 0.58332992 1.5156788
1.5572405 -0.24288842 1.5288391
1.5546767 -0.26107633 1.5178609
1.5498995 -0.29026285 1.5160385
1.5451493 -0.32041511 1.5157564
1.5407498 -0.34984952 1.51652
1.5366035 -0.37956777 1.5173695
1.5327444 -0.40979543 1.5173397
1.5292559 -0.4394384 1.5171134
1.5260125 -0.46951064 1.516395
1.5229998 -0.49952284 1.5162272
1.5208414 -0.52552378 1.5106565
1.5194316 -0.545008 1.5032389
1.548929 0.68990546 1.4865232
1.5532321 0.67007703 1.486131
1.5598816 0.63985974 1.4866502
1.5662526 0.61030477 1.485384
1.5723001 0.58218783 1.4859759
1.5544807 -0.26850235 1.4893562
1.5511934 -0.28910089 1.4865785
1.5463792 -0.32021251 1.4858162
1.5419599 -0.35036996 1.4861052
1.5379404 -0.37961152 1.486721
1.5340748 -0.40975592 1.487447
1.5305027 -0.43985847 1.4875222
1.5272776 -0.46953893 1.4862492
1.5242071 -0.49955013 1.4864432
1.5213368 -0.52974403 1.4868505
1.5191003 -0.55622292 1.483727
1.5176568 -0.57624191 1.4750812
1.5475978 0.68985772 1.4568584
1.5517554 0.66993135 1.4561
1.5581911 0.63976091 1.4567405
1.5643629 0.61006075 1.4554681
1.5705423 0.58039135 1.4560791
1.573072 0.56350911 1.4457133
1.5540649 -0.27292025 1.4654748
1.5513644 -0.2897864 1.4567169
1.5468495 -0.31964192 1.4567416
1.5424684 -0.3502695 1.4554734
1.5384697 -0.38001397 1.456414
1.5347866 -0.40924948 1.4570254
1.5312161 -0.43956 1.4576099
1.5278972 -0.46993589 1.4567142
1.5249112 -0.49917367 1.4564545
1.5220338 -0.52938372 1.4566144
1.5193657 -0.55943435 1.4571633
1.5171734 -0.58637077 1.4549772
1.5157514 -0.60591465 1.44542
1.5462239 0.68859553 1.4275662
1.5498695 0.67022306 1.4265556
1.5560093 0.6399253 1.426416
1.5620533 0.60965782 1.4256694
1.568013 0.57980728 1.4262208
1.5714372 0.56042421 1.4230694
1.5506232 -0.29128185 1.4265717
1.5465684 -0.31915218 1.4269285
1.542269 -0.35003859 1.4257835
1.5383317 -0.38025558 1.4261878
1.5347494 -0.40953711 1.4268336
1.5312611 -0.43989304 1.4274538
