# .PCD v0.7 - Point Cloud Data file format
VERSION 0.7
FIELDS x y z
SIZE 4 4 4
TYPE F F F
COUNT 1 1 1
WIDTH 1570
HEIGHT 1
VIEWPOINT 0 0 0 1 0 0 0
POINTS 1570
DATA ascii
1.8009212 0.80415571 1.2697005
1.7932072 0.77665406 1.2713363
1.7917104 0.74692035 1.2711623
1.7912976 0.71739906 1.2708195
1.7897686 0.68604374 1.271513
1.7890406 0.65622663 1.2707001
1.7912143 0.62722027 1.2716103
1.7877702 0.5974319 1.2711066
1.7848835 0.56722116 1.2714474
1.7936789 0.53669202 1.2711656
1.7999953 0.50661099 1.2710341
1.799931 0.47683597 1.271089
1.8013002 0.44673508 1.2708423
1.8027803 0.42077899 1.2701713
1.803405 0.85977602 1.2286111
1.8021746 0.83551264 1.238832
1.7977217 0.80712992 1.2413189
1.7935845 0.77674007 1.2405598
1.7909085 0.74748975 1.2407079
1.7892009 0.71704888 1.2412844
1.7857192 0.6865133 1.2410394
1.7858802 0.6564427 1.2410614
1.7872875 0.62703979 1.2406536
1.7888798 0.59761083 1.2410322
1.7891012 0.56742841 1.2410408
1.7958224 0.53645062 1.2409744
1.8000593 0.50658298 1.2411306
1.799131 0.47717375 1.2410905
1.7979537 0.44753456 1.240937
1.8012799 0.42289233 1.2416149
1.8022801 0.86288047 1.215724
1.8029908 0.83414316 1.2109861
1.8010027 0.80735183 1.2105172
1.7947358 0.77652967 1.2107257
1.7854726 0.74662787 1.2110385
1.7869911 0.7162379 1.2109964
1.7854724 0.68658334 1.2110621
1.7820637 0.6575501 1.2111595
1.778803 0.62766373 1.2108862
1.7798936 0.59692353 1.2116114
1.7785106 0.56548476 1.2100619
1.784923 0.53667319 1.2110637
1.7928911 0.50680763 1.210801
1.7953337 0.47685009 1.2109435
1.7987939 0.44681555 1.2103766
1.8021995 0.42427522 1.2087328
1.8020846 0.82875836 1.1859479
1.7996436 0.80741328 1.1803783
1.793947 0.7766819 1.1805387
1.7909597 0.74593258 1.1810843
1.7855215 0.71701038 1.1807742
1.7810918 0.68757379 1.1811405
1.7801796 0.65732014 1.1812007
1.7771552 0.62858677 1.1857041
1.7783045 0.59592962 1.1837708
1.7793361 0.56628275 1.1805476
1.7822537 0.53677934 1.1812561
1.7885376 0.50647819 1.1805381
1.789879 0.47711849 1.1805822
1.7935514 0.44752127 1.1811547
1.8007325 0.42282248 1.1816764
1.8037801 0.85422969 1.137696
1.8019364 0.83621979 1.1407138
1.8006574 0.80616099 1.1487757
1.7956805 0.77634358 1.1501818
1.7915299 0.746176 1.150075
1.7853076 0.71678221 1.1505914
1.7819752 0.68742192 1.1509637
1.7841511 0.656941 1.151108
1.7826428 0.62681502 1.149761
1.7776374 0.60933089 1.1478348
1.7767802 0.55702251 1.1518257
1.7803067 0.53695619 1.1505642
1.7875674 0.50666958 1.1512319
1.7850831 0.47793716 1.1508213
1.7926251 0.44779891 1.1507008
1.80328 0.42937964 1.1523888
1.8032508 0.85808116 1.1131821
1.7972981 0.83788109 1.1195215
1.7957445 0.80693316 1.1197703
1.7905216 0.77645451 1.1208701
1.7860528 0.7464959 1.120934
1.7819111 0.71677828 1.1207461
1.7773682 0.68308055 1.1191499
1.7808323 0.65702164 1.1214509
1.7798238 0.62996924 1.1211185
1.7808685 0.5958221 1.1128416
1.7774988 0.56521487 1.1102982
1.780057 0.53582549 1.1203059
1.7929891 0.50595456 1.1204453
1.7953681 0.47763395 1.1201063
1.7982423 0.44688308 1.1192731
1.7999282 0.4188512 1.1158743
1.8010137 0.86333221 1.0899538
1.7963551 0.83622622 1.0895805
1.7890522 0.80604303 1.090511
1.7836096 0.77699363 1.0907117
1.7784872 0.74472785 1.0932807
1.7797797 0.71686459 1.0907718
1.7795135 0.68748915 1.0889829
1.7816432 0.65725064 1.0901258
1.7833925 0.62745965 1.0896325
1.7890947 0.59616077 1.0903568
1.780975 0.56617463 1.0890009
1.7807913 0.53537542 1.0896537
1.7811717 0.50670683 1.0908006
1.7882166 0.47671574 1.0909702
1.7920908 0.4480527 1.0899518
1.7992967 0.41940773 1.0896453
1.8012671 0.86019957 1.0564237
1.8000154 0.83750093 1.0590597
1.7904322 0.80733204 1.0600469
1.7830365 0.7775194 1.0607913
1.7813776 0.74751449 1.0598735
1.779792 0.71637565 1.0596304
1.780403 0.68719566 1.059086
1.7808912 0.65765524 1.0604734
1.7771715 0.62451696 1.0535277
1.7820827 0.596461 1.0602263
1.7802045 0.56873178 1.0609012
1.7810984 0.53621775 1.0601786
1.7891914 0.50596702 1.0597122
1.7857813 0.47660059 1.0598557
1.7884194 0.44675422 1.0605097
1.797868 0.41824925 1.0585065
1.8018237 0.86198741 1.0370547
1.798183 0.83514285 1.0302137
1.7896953 0.80614185 1.0303479
1.7844548 0.77657712 1.0306833
1.7821318 0.74716902 1.0296787
1.7812268 0.71787488 1.0294654
1.7797219 0.68738639 1.0301213
1.7780154 0.66544938 1.0320147
1.7776625 0.62039351 1.0375297
1.7802006 0.5965333 1.0307816
1.7786466 0.56957591 1.0270926
1.779523 0.53555053 1.0283158
1.784013 0.5060541 1.0295297
1.7847568 0.47666007 1.0305266
1.7836428 0.44758558 1.030092
1.7942982 0.41687495 1.0295311
1.8037801 0.40028578 1.0243793
1.8024943 0.88916242 0.98888153
1.8022803 0.86742145 0.99072671
1.8014777 0.83608329 0.99919677
1.7923797 0.80715477 0.99955368
1.783757 0.77700436 0.99957907
1.7769872 0.75408596 1.0040412
1.7771331 0.71095717 0.99973464
1.7775697 0.69723332 1.0026201
1.7767801 0.58838844 1.0075647
1.7776338 0.56619573 0.99927795
1.7775657 0.53696322 1.0024445
1.7782799 0.50605232 1.006496
1.78038 0.47566468 1.0000478
1.7832141 0.44682211 1.0002369
1.7861295 0.41908759 1.0010952
1.8005302 0.39766508 0.99986029
1.79971 0.89300674 0.97084308
1.7990116 0.86783028 0.97128916
1.799589 0.83662367 0.96938634
1.7886177 0.80644941 0.9701547
1.7813457 0.77774775 0.96885478
1.7786831 0.74731791 0.96843165
1.7768934 0.71699727 0.97299939
1.7767801 0.69463485 0.97586745
1.7767801 0.58437228 0.97518468
1.7782263 0.56595355 0.97370517
1.7769676 0.54231185 0.97511673
1.7767801 0.49442667 0.96767765
1.7777383 0.4767921 0.96907061
1.7834802 0.44726431 0.97057295
1.7928933 0.41719633 0.96999627
1.8016201 0.39496881 0.96802199
1.8019083 0.89120758 0.94276893
1.7968533 0.86673754 0.94010627
1.792611 0.8359915 0.93953645
1.7834592 0.80710876 0.94060826
1.7790618 0.77807975 0.93955326
1.7782139 0.74853092 0.94486707
1.77678 0.58286631 0.93301547
1.77678 0.57844853 0.93135881
1.7777374 0.50203347 0.93602157
1.7789205 0.47643065 0.9394927
1.7809696 0.44637924 0.93815625
1.7880852 0.41597021 0.93928772
1.7969303 0.3890847 0.94034564
1.8018079 0.89033967 0.90801322
1.7966015 0.86722237 0.90993369
1.7928172 0.83558607 0.90890241
1.7885728 0.8063038 0.91000015
1.7834684 0.77697182 0.90876693
1.7772418 0.74970829 0.899755
1.7771549 0.72317916 0.89770764
1.77678 0.64913213 0.89656925
1.7784467 0.63094997 0.89647484
1.7767801 0.52955222 0.89837646
1.7784261 0.5046587 0.908355
1.78002 0.47691846 0.90865606
1.7806084 0.44694942 0.90911865
1.7837332 0.41679305 0.9098779
1.7957383 0.38804966 0.9100076
1.802749 0.88943857 0.88091123
1.7982012 0.8671267 0.88043833
1.7932605 0.83595651 0.87874329
1.7904724 0.8060323 0.87896121
1.7819822 0.77860582 0.88018894
1.777408 0.74862969 0.88722229
1.7772539 0.72086596 0.88649547
1.77678 0.69717503 0.86674953
1.7785579 0.64823496 0.88465118
1.7818913 0.62692451 0.87884724
1.77828 0.61012799 0.87003183
1.7778438 0.53204733 0.88244861
1.780861 0.50705546 0.87895811
1.7841657 0.47738224 0.87837201
1.780954 0.44749832 0.87840569
1.7856013 0.41836059 0.87979394
1.7993416 0.38923371 0.88037068
1.8010191 0.89174008 0.84560257
1.7952442 0.86669433 0.84982193
1.7867085 0.83678722 0.85082722
1.7823704 0.80733389 0.8495574
1.7779263 0.78379124 0.85387111
1.7777213 0.74159265 0.84471679
1.7787929 0.71669811 0.84854567
1.7784603 0.6966759 0.85403681
1.7774659 0.62316465 0.85688484
1.77728 0.60147917 0.85941911
1.77678 0.52322686 0.86343622
1.7782801 0.50621724 0.85696054
1.7800778 0.47577667 0.85678959
1.7782973 0.44502199 0.8536554
1.7851073 0.41716009 0.85083616
1.7999498 0.38700396 0.84925973
1.80378 0.36600888 0.84594738
1.8037801 0.94217712 0.80789328
1.7979845 0.92077649 0.8141588
1.7872902 0.89686739 0.82104647
1.7875463 0.86643237 0.82007867
1.7879164 0.83632421 0.81994331
1.7816318 0.80734313 0.81946754
1.7779886 0.78101987 0.81083393
1.7802063 0.74675101 0.81859058
1.7794311 0.72409666 0.82202184
1.77678 0.67895186 0.80711019
1.77678 0.58286631 0.83030331
1.77678 0.57789624 0.83030331
1.778456 0.50445276 0.81208384
1.77678 0.48926556 0.80959511
1.7782801 0.43730861 0.81470275
1.788871 0.41679239 0.81945556
1.8005763 0.38855982 0.81592762
1.8027803 0.36329353 0.81242073
1.802964 0.95003259 0.79127312
1.7960674 0.92658085 0.79025513
1.7931412 0.89724535 0.78952509
1.7925881 0.86607718 0.78910875
1.7839775 0.83691967 0.79130262
1.7825434 0.80717182 0.79013067
1.7804831 0.777632 0.78921592
1.7773327 0.75303471 0.79549414
1.77678 0.67858374 0.8023243
1.77678 0.66901201 0.80048358
1.778499 0.50243324 0.79780883
1.7771016 0.47681773 0.78817677
1.781226 0.44627595 0.7891919
1.7877644 0.41734898 0.79008764
1.7978929 0.38622004 0.78920799
1.8016623 0.35700905 0.78786409
1.8022801 0.34086299 0.78644401
1.7989962 0.94861686 0.76033258
1.7967517 0.92582071 0.76148248
1.800205 0.89657426 0.76004755
1.7954206 0.86721158 0.76183951
1.7891188 0.83578283 0.76226282
1.7824667 0.80809295 0.76367289
1.7771136 0.78528267 0.7698034
1.7781862 0.46939105 0.76516259
1.7803198 0.44593996 0.76307154
1.7876277 0.41619802 0.76104212
1.7953433 0.38695276 0.76048583
1.8014537 0.35847038 0.76280051
1.8015301 0.34125674 0.76644325
1.79803 0.3826524 0.7433303
1.8037801 0.3688277 0.74193269
1.83128 0.79700166 1.7965331
1.8297801 0.78691179 1.7959292
1.8272166 0.80282444 1.777627
1.8192589 0.77672195 1.7791767
1.815725 0.74680626 1.7783253
1.8131981 0.71751595 1.7771449
1.8067795 0.69170767 1.7770132
1.8067801 0.6639688 1.7719791
1.807655 0.5907824 1.7751496
1.8122367 0.56658161 1.7763267
1.8178387 0.5373323 1.7769094
1.8284645 0.50913262 1.7788346
1.8327801 0.46659046 1.7660239
1.8327801 0.82266355 1.7418246
1.8254243 0.80640423 1.7491479
1.8130367 0.77766782 1.7487502
1.8108723 0.74752748 1.7503483
1.8123212 0.71658355 1.7501727
1.8090395 0.68755496 1.7495081
1.8092521 0.65731049 1.7497437
1.8088467 0.63095248 1.7452383
1.8067796 0.58897549 1.7554798
1.8082343 0.56683111 1.7502377
1.8136421 0.53757584 1.7491713
1.8250384 0.50679582 1.748557
1.8321921 0.47707134 1.7469677
1.8324051 0.45486683 1.7432026
1.8302245 0.82855994 1.7166262
1.8207666 0.80733287 1.7196085
1.8108532 0.77701956 1.7193471
1.8076218 0.74848521 1.7164192
1.8089273 0.7177037 1.7196176
1.8100761 0.68683833 1.7200352
1.810123 0.65784037 1.7208271
1.8093612 0.63197547 1.7251487
1.8070523 0.56370258 1.7195774
1.8145945 0.53695297 1.7206278
1.8263087 0.50551307 1.7197227
1.8294113 0.47571087 1.7196777
1.8305988 0.452519 1.7186794
1.8286625 0.83081186 1.6891742
1.8230211 0.80703312 1.689834
1.8127929 0.77826589 1.6901045
1.8143607 0.7470938 1.6908308
1.8137928 0.71656132 1.6906445
1.8076546 0.69256639 1.6911058
1.8074726 0.55575138 1.689356
1.8149923 0.5377177 1.6900635
1.8235418 0.50708067 1.690923
1.8294673 0.476206 1.6899326
1.8323089 0.44783098 1.6884875
1.8327801 0.42718041 1.6789069
1.8323516 0.82816261 1.6715636
1.8278898 0.80499649 1.6598847
1.8148397 0.77772194 1.6594
1.810183 0.74769378 1.6614764
1.8113517 0.71672547 1.6599486
1.8091259 0.68805766 1.6589863
1.8067797 0.6654219 1.6563861
1.8067801 0.58429694 1.6476684
1.8078568 0.56309283 1.6549454
1.8105609 0.53762674 1.6601177
1.8125615 0.50768191 1.660095
1.8204576 0.47689623 1.6596011
1.8231075 0.44721466 1.6588104
1.8301673 0.42438585 1.6591892
1.8311646 0.82530665 1.623847
1.825912 0.80627584 1.6287484
1.8149681 0.77582335 1.6298335
1.8067801 0.75008225 1.6378365
1.8077798 0.71552128 1.6365633
1.8081433 0.68580788 1.6310591
1.8067794 0.66170871 1.6290219
1.8067799 0.6182996 1.6309162
1.8067794 0.59753108 1.6339883
1.8072082 0.56743753 1.6375254
1.8067796 0.53581589 1.6402096
1.8097801 0.50782669 1.6302321
1.8167168 0.47621858 1.6297247
1.8208766 0.44764203 1.630077
1.8304909 0.42386228 1.6293769
1.8311133 0.82637781 1.5996521
1.8267027 0.80667758 1.5996363
1.8161379 0.77735066 1.600363
1.807816 0.75054479 1.5965247
1.8075739 0.7235142 1.5946214
1.8067801 0.67790675 1.6111284
1.8067797 0.66380745 1.6079533
1.8067797 0.5695492 1.5898639
1.8067801 0.52553183 1.5996392
1.8115798 0.50712121 1.6002061
1.8137804 0.47717077 1.6007504
1.8205014 0.44769061 1.5998588
1.83103 0.42560381 1.6033745
1.8309801 0.82801092 1.568441
1.824209 0.80639422 1.5697005
1.8146359 0.7775234 1.5702665
1.8095572 0.7481389 1.5703601
1.8076588 0.72192591 1.5715441
1.8067795 0.68237329 1.5618212
1.8067796 0.66766739 1.570154
1.8070105 0.5645256 1.5783542
1.8067801 0.49953967 1.5832527
1.8081435 0.47422463 1.570402
1.8204807 0.44774681 1.5702711
1.8313954 0.42546296 1.5636077
1.8296003 0.83116865 1.5401527
1.8229171 0.80713212 1.5393972
1.8168966 0.77752233 1.5399868
1.8074257 0.74932384 1.5419792
1.8067794 0.7199868 1.5372491
1.8071176 0.68770957 1.5389638
1.8067801 0.67074943 1.5527401
1.8067797 0.61688137 1.5352236
1.8067795 0.60144776 1.5346917
1.8078299 0.52795571 1.5346503
1.8117806 0.50634843 1.5401497
1.8123074 0.47769392 1.5399086
1.817616 0.44783443 1.54003
1.8288033 0.42135811 1.5404687
1.831247 0.83134711 1.507617
1.8197255 0.80750859 1.5096648
1.8152139 0.77563626 1.5091527
1.8070108 0.75102615 1.5029756
1.8067795 0.71669376 1.5105369
1.8067796 0.69001234 1.5191454
1.80678 0.65549314 1.5081819
1.8067801 0.61582673 1.5208714
1.8067801 0.60718143 1.5213799
1.8088976 0.53004211 1.5114744
1.8112575 0.50671095 1.5121562
1.8097659 0.47667634 1.5103852
1.8168635 0.44825524 1.5095179
1.8295757 0.42027044 1.5079527
1.8327801 0.88777077 1.4687201
1.8282394 0.86379504 1.4739696
1.8196764 0.8365159 1.4794228
1.8085798 0.80515808 1.4829167
1.8082796 0.77710247 1.4805818
1.8078024 0.74588037 1.4840336
1.8090295 0.71742922 1.4798312
1.8088291 0.6906479 1.4725339
1.8081135 0.46883386 1.4838481
1.816565 0.44663304 1.4807621
1.8278915 0.41810769 1.4803793
1.8303425 0.88623828 1.4562519
1.8245016 0.86619657 1.4511608
1.8146528 0.83605105 1.4488088
1.808435 0.81334102 1.4489238
1.8067795 0.77550942 1.459959
1.8067801 0.75889707 1.4645925
1.8067801 0.71020007 1.4605858
1.8070655 0.69020987 1.4589866
1.8067801 0.65718824 1.4374702
1.8067799 0.55717468 1.4442508
1.8067794 0.53626788 1.4453808
1.8067799 0.51627922 1.4417081
1.8067801 0.46733189 1.4374702
1.8118169 0.44581735 1.4480582
1.8240658 0.41778129 1.4493514
1.8323301 0.39489657 1.4460144
1.8286371 0.88961715 1.4107922
1.8266523 0.86513239 1.4169536
1.8165751 0.83677959 1.4203174
1.8079176 0.81108701 1.4192649
1.8067801 0.78827953 1.4080876
1.8070368 0.71311414 1.4211315
1.8067801 0.66154718 1.4321426
1.8067801 0.53328848 1.432847
1.8067796 0.5073877 1.4301873
1.8077604 0.47304046 1.4222721
1.8155833 0.44671035 1.4199345
1.8275188 0.4167062 1.4200321
1.8327801 0.39745009 1.4279273
1.8279434 0.89056504 1.3890728
1.8167431 0.86598915 1.3908507
1.8099823 0.83709919 1.391536
1.8071666 0.80837017 1.3922894
1.8074319 0.78280342 1.3965633
1.8067801 0.735165 1.3764449
1.8067801 0.72191203 1.3878486
1.8080658 0.46920252 1.3893622
1.8158426 0.44685525 1.390193
1.8253801 0.4167968 1.3899781
1.8309965 0.3920368 1.3873585
1.8281602 0.89009583 1.3603572
1.8173728 0.8660835 1.3603383
1.8095343 0.83945638 1.3567849
1.8070929 0.80676043 1.3584539
1.8069159 0.77559221 1.3529539
1.8067801 0.7549417 1.353843
1.8067801 0.73177469 1.3730546
1.8067801 0.46800995 1.3723766
1.8086687 0.44228637 1.3649325
1.8156188 0.41669035 1.3604201
1.8279136 0.39031488 1.3604738
1.8302332 0.89136189 1.3303568
1.8229588 0.86601061 1.329505
1.8109666 0.83727098 1.3284512
1.8067801 0.80254704 1.3349138
1.8067801 0.7724582 1.3419769
1.8067801 0.75513005 1.3380216
1.80828 0.43708438 1.329065
1.8178128 0.41782099 1.3292061
1.8289095 0.38891977 1.3291683
1.8283761 0.92291808 1.29457
1.8253195 0.89691937 1.2986506
1.8255244 0.86608267 1.2994941
1.8101629 0.83638787 1.2985733
1.8067794 0.81040347 1.2995765
1.8075982 0.4349075 1.3055903
1.812911 0.41601014 1.2988007
1.8242227 0.38744235 1.2997985
1.8317801 0.36874986 1.2916203
1.8323516 0.94788462 1.2625326
1.8302518 0.92618811 1.2696078
1.82403 0.89616388 1.2698221
1.820821 0.86564314 1.2698064
1.812215 0.83653063 1.2702358
1.8075801 0.81685567 1.2745231
1.8069944 0.40620518 1.272561
1.8179601 0.38607752 1.2697729
1.8312801 0.36534965 1.2699246
1.8309343 0.95033479 1.2430534
1.8314948 0.92686266 1.2415049
1.8282057 0.8955766 1.2405759
1.8148485 0.86728549 1.242125
1.8087801 0.84563714 1.2498691
1.8074942 0.40839064 1.2393671
1.8187157 0.38710827 1.2409229
1.8310844 0.36477053 1.239073
1.8327801 0.9125461 1.2122092
1.8266619 0.89509702 1.210367
1.8101577 0.87105757 1.2059752
1.8068492 0.83978134 1.2098445
1.8095299 0.40966976 1.2119299
1.8212187 0.38682199 1.2093029
1.8309051 0.36582357 1.2070671
1.8308301 0.91617364 1.1744798
1.8242989 0.89614105 1.1788323
1.8149289 0.86638725 1.1793486
1.8084348 0.84014499 1.1773685
1.8067801 0.81992227 1.1662468
1.8083514 0.40863162 1.1766421
1.8173374 0.38795125 1.1795903
1.8295801 0.36250758 1.1828768
1.8316453 0.95139122 1.1463786
1.8291732 0.92697245 1.1506091
1.8198634 0.89659548 1.1499527
1.8094208 0.86724383 1.1495619
1.8084946 0.83752096 1.1550515
1.8067801 0.81780338 1.1586187
1.8140124 0.4146139 1.1478627
1.8238336 0.38784611 1.1491597
1.83228 0.3700397 1.1507077
1.831857 0.9498325 1.1305473
1.8274103 0.9268145 1.1201134
1.820341 0.89637196 1.1206245
1.8108108 0.86967146 1.1202081
1.8091551 0.41218346 1.1293675
1.8190844 0.38765681 1.1214702
1.8327801 0.36979389 1.1299322
1.8327801 0.94365931 1.0988189
1.8260063 0.92503792 1.0922116
1.8173932 0.89701587 1.0901582
1.808201 0.8779285 1.0886209
1.8067801 0.40291637 1.0882701
1.8194629 0.3869217 1.0890082
1.8317801 0.37028545 1.0782106
1.8296136 0.91838807 1.0569526
1.8218173 0.8963995 1.058956
1.8100072 0.87363684 1.0621428
1.8067801 0.40348142 1.0684934
1.8172245 0.38589853 1.0591204
1.8302271 0.3581925 1.0560292
1.8327801 0.94365931 1.0158504
1.8259419 0.92571878 1.0290011
1.8175465 0.89637983 1.0295151
1.8103271 0.8702234 1.0263046
1.8067801 0.84817469 1.0193341
1.8135802 0.38528502 1.0308455
1.8263867 0.35543692 1.0302941
1.8325402 0.33493245 1.0262613
1.831857 0.94850582 0.99927199
1.8238163 0.92681038 0.99986666
1.8141903 0.89842606 1.0006835
1.8105072 0.86717802 1.0042975
1.8067801 0.84817475 1.0074681
1.8143111 0.3820551 1.0003805
1.8283457 0.35593373 0.99956679
1.8303802 0.33387488 0.99817169
1.83208 0.94785279 0.97002453
1.8225495 0.92734033 0.96946752
1.8084468 0.9077909 0.96988344
1.8115151 0.38034075 0.97070897
1.823764 0.35698622 0.96972787
1.8302639 0.33429456 0.97210252
1.8317801 0.94487715 0.95269537
1.8237067 0.92540693 0.940099
1.8101583 0.90427089 0.93745565
1.8067801 0.37375981 0.94384366
1.8167983 0.35676283 0.93989158
1.8271133 0.33499879 0.9391374
1.8261331 0.95449597 0.90629172
1.8203099 0.92744619 0.9100225
1.8109258 0.90379363 0.91126513
1.8067801 0.37240368 0.90519428
1.8159024 0.3570323 0.91008842
1.8271439 0.3338604 0.9099077
1.8327801 0.97477245 0.88794076
1.8293395 0.95794189 0.88130862
1.8235738 0.92657667 0.88078535
1.8103482 0.90357322 0.87867081
1.8067801 0.37278038 0.87844867
1.8162986 0.35587186 0.87941492
1.8293186 0.33241069 0.88040626
1.8287085 1.0064626 0.84006751
1.8258178 0.98596746 0.84476221
1.8291643 0.95796734 0.8462019
1.825083 0.92564315 0.84736955
1.8117117 0.90406132 0.85216188
1.8067801 0.37308174 0.85705215
1.8101981 0.35492879 0.85065794
1.8206691 0.33463407 0.85281527
1.825133 1.010705 0.8194648
1.8134396 0.9854188 0.82086438
1.8142985 0.95661533 0.81955743
1.8122452 0.93104458 0.82452726
1.8067801 0.91146016 0.8339982
1.8067796 0.37748921 0.8253684
1.808453 0.35445499 0.8231501
1.8162801 0.33521938 0.82072747
1.8272213 1.0095497 0.79305208
1.8121747 0.98562127 0.79080093
1.8071226 0.96268505 0.78834748
1.8067801 0.34641147 0.80235541
1.8106689 0.3379705 0.79952037
1.8327801 1.0024287 0.766945
1.823246 0.98560113 0.75859219
1.8113327 0.96253252 0.75967526
1.8067801 0.88433784 0.76788747
1.8067801 0.88094753 0.76958263
1.8070529 0.35099548 0.75036931
1.8077801 0.33967227 0.75224841
1.83218 1.0038246 0.7388286
1.8232799 0.98817039 0.74159622
1.81078 0.96550691 0.74430919
1.8099675 0.3518995 0.74037385
1.8141135 0.33635587 0.73961395
1.8640878 0.95086032 1.8018507
1.8647799 0.93959606 1.8029408
1.8638568 0.89306545 1.8021619
1.8632011 0.86630809 1.8031459
1.8571516 0.83872688 1.8014076
1.8385801 0.81447893 1.7980824
1.8397801 0.47233492 1.7964799
1.84648 0.44476688 1.7981112
1.8547803 0.41568696 1.799467
1.8594048 0.38666475 1.8008043
1.8647798 0.36413682 1.8015796
1.8635447 0.95183706 1.7903827
1.8633682 0.91794884 1.7755578
1.8607621 0.89702153 1.779238
1.8619109 0.86719906 1.7786245
1.85578 0.83550221 1.7807335
1.8386644 0.81734836 1.7828147
1.8357801 0.49381912 1.7856407
1.8366871 0.47758883 1.7803117
1.8401799 0.4482342 1.7794431
1.8510656 0.41654319 1.7802949
1.8578949 0.38676775 1.7812803
1.8620527 0.35873693 1.7775234
1.8647801 0.33849174 1.7703806
1.8593158 0.92494226 1.7475147
1.8543352 0.8965894 1.7496164
1.8515795 0.8673659 1.7490268
1.8437525 0.83774781 1.7495219
1.8367801 0.82030976 1.7640744
1.8357803 0.47630298 1.7594628
1.8366095 0.44424266 1.7522366
1.8419912 0.41740346 1.7491262
1.8517299 0.38815713 1.749377
1.8612425 0.35716462 1.7496336
1.8647799 0.33919942 1.7537467
1.8647801 0.94510144 1.7321579
1.8622011 0.92370439 1.7227695
1.8601092 0.89637238 1.7199116
1.8546231 0.8671689 1.7198535
1.8412031 0.84311557 1.7211843
1.8360802 0.43678778 1.7218797
1.8406396 0.41807157 1.7203283
1.8527288 0.38803494 1.7199566
1.8628582 0.35715133 1.7212715
1.8647798 0.33518845 1.711218
1.8644727 0.99139208 1.6898633
1.8647801 0.91560853 1.7014853
1.8600516 0.89364469 1.6912467
1.8510402 0.86600518 1.6901814
1.8395447 0.84563625 1.6888742
1.83578 0.43530387 1.7007551
1.8384576 0.41612178 1.6918626
1.8509564 0.38639486 1.689317
1.8622798 0.36367744 1.6896378
1.8647801 0.33282912 1.7038447
1.8625799 0.94760042 1.652014
1.8604724 0.92755622 1.6545047
1.8562801 0.89550537 1.6596239
1.8498648 0.86697322 1.6600792
1.8413409 0.83778441 1.6593822
1.8357801 0.81743348 1.6562912
1.8379282 0.40928739 1.6603982
1.8493146 0.38662511 1.6604906
1.8610058 0.3628577 1.6591156
1.8616765 0.94651985 1.6307441
1.8576394 0.92591351 1.6300504
1.8578047 0.89616096 1.6306639
1.8536837 0.86702996 1.6298125
1.8430097 0.83979607 1.630841
1.8372798 0.40760165 1.6295247
1.8466727 0.3864556 1.6297808
1.8614402 0.35649306 1.6284823
1.8582708 0.98373175 1.5971957
1.862885 0.9673537 1.5986919
1.8626219 0.92379391 1.6020397
1.8616474 0.89783227 1.599658
1.8559033 0.86742103 1.6000972
1.8417988 0.84137702 1.6004972
1.8394465 0.41186756 1.5988873
1.8535897 0.38673836 1.5996565
1.8623252 0.35950702 1.5985429
1.8647801 0.33872765 1.5882326
1.8622797 0.98279488 1.578351
1.8637801 0.96992046 1.5797362
1.861137 0.92277539 1.5769681
1.8594075 0.89714658 1.5756626
1.8517033 0.86601716 1.5698677
1.8376948 0.84213275 1.5713791
1.8392159 0.41409355 1.5719938
1.8506073 0.38572013 1.5694611
1.8533297 0.35758466 1.5689807
1.86022 0.33541906 1.5694488
1.8647801 0.94923043 1.5280671
1.8612415 0.92714047 1.5326235
1.8595543 0.89720738 1.5314381
1.8481179 0.86531115 1.5394366
1.8367087 0.84595335 1.5393045
1.83678 0.40533632 1.5368083
1.8443397 0.3856647 1.5401106
1.8552717 0.35610598 1.5399573
1.8625741 0.33373499 1.5375687
1.8647798 0.94737661 1.5147532
1.8551965 0.92815465 1.5095853
1.8504959 0.89660573 1.5104915
1.8446317 0.86641669 1.5102847
1.836386 0.84300846 1.5136189
1.836517 0.40736514 1.5158395
1.8407445 0.38673037 1.5099878
1.8503393 0.35693592 1.5087973
1.8602481 0.32880986 1.5106112
1.8647798 0.9854477 1.4848895
1.8617227 0.95325261 1.4757609
1.8483858 0.92690837 1.47971
1.839174 0.89901787 1.4810499
1.8390372 0.87002128 1.4870864
1.83578 0.4029665 1.4778581
1.839828 0.38716847 1.4802613
1.84978 0.35735708 1.4808397
1.8604859 0.32904446 1.4793377
1.864464 1.0119784 1.4433951
1.8629801 0.98709953 1.4443582
1.863626 0.95693052 1.4508178
1.8562599 0.92723441 1.4503443
1.8410722 0.90059465 1.4486248
1.83578 0.87694007 1.4387068
1.8372416 0.3827154 1.4526227
1.8480251 0.35726911 1.4504349
1.8610824 0.33042252 1.4499013
1.8645657 1.0070406 1.4247297
1.8629277 0.98763192 1.4204845
1.860527 0.95631939 1.4198925
1.8546395 0.92725748 1.4204443
1.8399348 0.90000707 1.4227611
1.8363954 0.87103146 1.4298317
1.8372962 0.38479406 1.4191973
1.8460835 0.35681188 1.4200798
1.8604944 0.33011806 1.4191941
1.86268 1.0103775 1.3896044
1.8560305 0.98786443 1.3897836
1.851863 0.95643282 1.3893796
1.8487498 0.92649329 1.3897614
1.8383852 0.90639192 1.390404
1.8368185 0.38007587 1.3948153
1.84483 0.35722274 1.3897212
1.8574531 0.32678044 1.3893777
1.8640878 0.30814677 1.3879814
1.8640301 1.0082301 1.368741
1.8610299 0.98753208 1.3604224
1.8534092 0.95635676 1.3596594
1.8501124 0.92677486 1.3594172
1.8403389 0.9065702 1.3600013
1.8357801 0.37524873 1.3600577
1.8417512 0.35625929 1.3596017
1.8514407 0.32687157 1.3593421
1.8599049 0.30862951 1.3608395
1.8647801 1.0335801 1.3180777
1.86288 1.0152048 1.3235304
1.8593297 0.98755854 1.3300012
1.8541132 0.95631981 1.3298917
1.8481187 0.92669487 1.3293796
1.8384986 0.9067297 1.331632
1.83578 0.37524873 1.3392694
1.8406445 0.35830718 1.3310004
1.8552504 0.32730585 1.3300377
1.8624723 0.30845201 1.3329115
1.86308 1.0391194 1.2999725
1.8569878 1.0163554 1.3004394
1.8523394 0.98685259 1.2998352
1.8457429 0.95679498 1.2997659
1.8382504 0.93126047 1.305946
1.8406781 0.35489517 1.3002933
1.8562328 0.32699168 1.3001766
1.86388 0.30852818 1.2936363
1.8647801 1.0052669 1.2826862
1.8559142 0.9868384 1.2703328
1.8400559 0.95943916 1.2718288
1.83578 0.93999797 1.2803692
1.8403738 0.35040969 1.2700307
1.8510022 0.32617098 1.2697612
1.85878 0.30838555 1.2723517
1.8607261 1.0420742 1.2346398
1.8551893 1.0159498 1.2376833
1.8494641 0.98716724 1.2408566
1.8385416 0.96395439 1.2381804
1.8357803 0.92361927 1.2345403
1.83578 0.9088155 1.2439896
1.8377486 0.35108322 1.2411572
1.8476847 0.32749361 1.2403952
1.8554466 0.30943906 1.240308
1.8604848 1.0426471 1.2127513
1.8516965 1.0160463 1.2105474
1.8476371 0.98608327 1.2093354
1.8429171 0.95693707 1.2090995
1.838977 0.92681527 1.2090453
1.83578 0.90742964 1.1982553
1.8372535 0.35216528 1.2110292
1.8461573 0.32794708 1.2094123
1.85878 0.30768085 1.2191378
1.8647801 1.0725107 1.1658944
1.8647801 1.0347598 1.1930279
1.8563449 1.0142215 1.1816692
1.8478546 0.98693037 1.1795027
1.8388914 0.95716321 1.1797252
1.8371872 0.92943484 1.1813608
1.83698 0.34928125 1.1769755
1.84062 0.32990962 1.1791943
1.8647801 1.0937456 1.1411204
1.8647801 1.0859594 1.1446595
1.8643515 1.0350964 1.142168
1.8577955 1.0149937 1.1484764
1.847767 0.98722434 1.1499859
1.8372573 0.96244973 1.1540319
1.8417265 0.35400814 1.1499808
1.8491701 0.3269608 1.1494077
1.8647801 1.0955151 1.1322725
1.8647801 1.0890267 1.1328623
1.8620656 1.0372783 1.1157881
1.8541648 1.0164374 1.1203972
1.8468269 0.98640704 1.1199027
1.8389864 0.95820814 1.1177789
1.847152 0.35442162 1.120218
1.848942 0.32977813 1.1186408
1.8605556 1.0429475 1.0912764
1.8532536 1.0155766 1.0903432
1.8426138 0.98655081 1.0907048
1.8401725 0.95812404 1.0899706
1.8368802 0.93507093 1.0799645
1.8469635 0.35517615 1.0892849
1.8504725 0.32929659 1.0909604
1.8623518 1.0413256 1.0616602
1.8556244 1.016459 1.060288
1.8488892 0.98634946 1.060216
1.8459404 0.95634109 1.0600113
1.8393756 0.93185538 1.0617627
1.8370181 0.35152578 1.0694318
1.8395112 0.32966113 1.0602913
1.8647801 1.0654324 1.0172503
1.8628206 1.0443971 1.0268255
1.8543183 1.0156333 1.030135
1.8462802 0.98641908 1.0309179
1.8425457 0.95709509 1.0303791
1.8370024 0.93837428 1.0366828
1.83728 0.32561052 1.0332688
1.8637211 1.0670722 0.99891639
1.8599654 1.0476855 1.0004435
1.8560269 1.0168233 1.0003538
1.8494318 0.98640639 0.9996559
1.8395449 0.96244037 1.0011674
1.83578 0.32327789 1.0049239
1.8647801 1.0666121 0.98067904
1.861384 1.0443107 0.97213805
1.8514093 1.0160576 0.97049886
1.8458672 0.98682612 0.9710387
1.83806 0.96275622 0.97069705
1.8364468 0.32562327 0.96012074
1.8636891 1.0670146 0.93353254
1.8590337 1.0463949 0.93912649
1.8502136 1.0156024 0.94013685
1.8505291 0.9862771 0.93914139
1.8444842 0.95740765 0.93832588
1.8362801 0.93866467 0.93421137
1.8360658 0.32510775 0.94942451
1.863637 1.0684375 0.91001105
1.8589799 1.0472594 0.9101156
1.8513772 1.0165143 0.91018486
1.8436415 0.98651272 0.9093945
1.8399421 0.9617976 0.91671485
1.83578 0.32327789 0.89751768
1.8634943 1.1303104 0.8697263
1.8634944 1.1174254 0.8669461
1.8647799 1.0654324 0.87922347
1.8616647 1.0481249 0.87953222
1.852286 1.0157386 0.87947637
1.8407959 0.98716688 0.87891293
1.83578 0.95662862 0.86702812
1.83578 0.93480086 0.86633521
1.83578 0.32327789 0.89405292
1.863857 1.1290725 0.8577081
1.8640659 1.1074369 0.84993595
1.8633169 1.0756603 0.84324068
1.8606688 1.0477043 0.84859407
1.8476868 1.0173182 0.85063118
1.8393133 0.98956162 0.8580302
1.8357803 0.95609874 0.86062849
1.8360659 0.93354291 0.85957026
1.8639801 1.0974848 0.82756376
1.85778 1.0773396 0.82074416
1.8504093 1.0475781 0.82011175
1.8406862 1.0258442 0.82136059
1.8595134 1.0729933 0.78961706
1.849306 1.0471194 0.78987837
1.8384743 1.022851 0.78734916
1.8647801 1.1220587 0.75181431
1.8639616 1.1089793 0.7517938
1.859894 1.0773243 0.75929654
1.8482612 1.047906 0.75978923
1.8417118 1.0168873 0.75870913
1.8639619 1.1255423 0.73282295
1.8577272 1.1064022 0.73587078
1.8527799 1.0782796 0.73660827
1.843707 1.0476671 0.73791814
1.8392466 1.0195539 0.73890221
1.8927799 1.063946 1.803597
1.8908511 1.046234 1.8097025
1.8883337 1.0174139 1.8087075
1.8835802 0.98752493 1.8073688
1.87186 0.96259445 1.8064694
1.8701588 0.92382377 1.8047918
1.8683134 0.90348542 1.8055295
1.8677801 0.87161106 1.7976305
1.8677801 0.34866899 1.8020798
1.8715155 0.32554066 1.8022699
1.8759799 0.30395353 1.8038276
1.8927801 1.0657115 1.7883906
1.8909465 1.0462422 1.7808805
1.8866092 1.0177395 1.7796705
1.88222 0.98659533 1.7800481
1.8757029 0.95764494 1.7774096
1.8700049 0.93057275 1.7817316
1.8677801 0.89407438 1.7934926
1.8677801 0.86510849 1.7909591
1.8677801 0.8467831 1.7911279
1.8677801 0.34470731 1.7895516
1.8718381 0.32431424 1.7798102
1.8784465 0.30266267 1.7797613
1.8900864 1.0431842 1.7512943
1.8846029 1.0171068 1.7493293
1.8826551 0.98700559 1.7508986
1.8740559 0.957371 1.7491403
1.8704228 0.93789476 1.7564547
1.8737799 0.32355297 1.7485321
1.8822371 0.30144882 1.7515185
1.8927801 1.0637053 1.7069424
1.8886135 1.0443611 1.7186642
1.8776826 1.0178783 1.7192278
1.8743955 0.98688376 1.7208089
1.8727224 0.95693415 1.7200372
1.870595 0.93565506 1.7146801
1.8677801 0.35471731 1.7090776
1.8705605 0.32486188 1.7226346
1.8804371 0.30146259 1.7200788
1.8890303 1.0738351 1.6870632
1.8865384 1.0458455 1.6907606
1.8785511 1.0172273 1.690035
1.8703167 0.98469853 1.6900431
1.878371 0.95656896 1.6906034
1.8770264 0.92727804 1.6900649
1.8693094 0.90555179 1.6846417
1.8682011 0.34957999 1.6929109
1.8715807 0.3263647 1.6888648
1.8844723 0.30129486 1.6905047
1.8844639 1.0729227 1.6603699
1.8822567 1.0459954 1.6609076
1.8811433 1.017821 1.6603384
1.8762548 0.98702765 1.6609888
1.8728011 0.96039879 1.6605492
1.870622 0.92640674 1.6690853
1.8677801 0.90767062 1.6728998
1.8683017 0.34770423 1.6604097
1.8738638 0.32690698 1.6603034
1.8855801 0.30431855 1.6610237
1.8845657 1.0692679 1.6307014
1.8781457 1.0462081 1.6293731
1.8841606 1.0172344 1.6305294
1.8765604 0.98740065 1.6307369
1.8706714 0.96119678 1.6291251
1.8677801 0.34346873 1.6374314
1.876098 0.32723218 1.630067
1.8907801 0.30883044 1.6333722
1.89218 1.0971404 1.5979877
1.8874857 1.0765779 1.5992002
1.8816705 1.0461282 1.6000898
1.8846848 1.0173789 1.6006312
1.8714643 0.99877977 1.6013881
1.8703403 0.95291865 1.5993245
1.8689467 0.93715084 1.5976672
1.8677801 0.88638955 1.6019629
1.8677801 0.87988704 1.6007806
1.8677801 0.34549558 1.6046231
1.876955 0.32663977 1.6012378
1.888857 0.30510932 1.5959063
1.8927801 1.0950007 1.5793535
1.885398 1.0760739 1.5698879
1.8757063 1.0465047 1.5691148
1.8756238 1.017539 1.5700572
1.8726376 0.98916608 1.5667535
1.8714995 0.95695609 1.5692755
1.870723 0.9293471 1.5658526
1.8734987 0.89646912 1.5624323
1.8714467 0.87889218 1.560204
1.8727365 0.3187272 1.5710186
1.8855801 0.30048084 1.5675216
1.8907802 1.1034281 1.5367277
1.8884051 1.0768138 1.5405456
1.8842869 1.0458478 1.5399108
1.8783627 1.0175185 1.5402839
1.8733777 0.98730546 1.5410615
1.8698328 0.95807457 1.5414876
1.8690301 0.92819321 1.5478097
1.8718711 0.89625442 1.547482
1.8697801 0.87996423 1.5500748
1.8699163 0.31875813 1.5414742
1.8745108 0.30431515 1.5401988
1.8892642 1.1059949 1.5107291
1.8873361 1.0767719 1.5097581
1.8915105 1.0477637 1.5092653
1.8835557 1.0178888 1.5101266
1.8700036 0.98741257 1.5101557
1.8699563 0.95992404 1.5090173
1.8677801 0.3135739 1.5079715
1.871817 0.30435956 1.5104853
1.8927801 1.1238887 1.4692178
1.8860302 1.1064432 1.4784951
1.8869888 1.0767658 1.4791234
1.8820864 1.0465008 1.4787574
1.8761408 1.0171083 1.4803586
1.8681141 0.98802722 1.4781289
1.8689228 0.96157753 1.4876455
1.8677801 0.3140806 1.4788367
1.8696133 0.30551529 1.4798976
1.8924466 1.1246694 1.45252
1.890507 1.1084979 1.4493568
1.8890741 1.0762639 1.4508013
1.8761892 1.0457785 1.4493382
1.8687403 1.0203161 1.4525648
1.8677801 0.98813969 1.4589807
1.8677801 0.96619362 1.4600891
1.8677801 0.31499261 1.4501579
1.8721135 0.30420107 1.4500506
1.8917799 1.1342902 1.4120551
1.8906908 1.1060479 1.4172069
1.8880925 1.0766239 1.4197333
1.8795447 1.0465569 1.4197375
1.871686 1.0199108 1.4191232
1.8677801 0.31623399 1.4193003
1.8746467 0.3042959 1.420835
1.8907033 1.1316161 1.3917426
1.8889365 1.1074306 1.3893955
1.8891964 1.0768344 1.3894362
1.8824124 1.0457458 1.3897333
1.8713853 1.0241456 1.3902562
1.8683515 0.30465877 1.3998541
1.8917801 1.1262307 1.3505887
1.8902225 1.1068866 1.3604441
1.8847388 1.0766951 1.3602872
1.8807797 1.0461458 1.3599844
1.8705126 1.0191319 1.3581942
1.8677801 1.001662 1.3465899
1.8912801 1.1266264 1.3373252
1.8876933 1.106874 1.3304774
1.888743 1.0768185 1.3299584
1.8780786 1.0467429 1.3304293
1.8694566 1.0198065 1.3367825
1.8677801 1.001662 1.3430431
1.8684467 0.30494624 1.3206103
1.8927801 1.1238887 1.2868619
1.8884467 1.1053481 1.2984403
1.8818632 1.0766182 1.2991828
1.8709643 1.0507174 1.2993861
1.8677801 1.0300368 1.2862936
1.8702086 0.30444062 1.3076675
1.8903327 1.1307518 1.2693534
1.8856554 1.107264 1.2705299
1.8779045 1.0764873 1.2704422
1.87403 1.0460602 1.2703962
1.8744467 1.0177624 1.2702019
1.8677801 1.001662 1.2685593
1.8888912 1.132647 1.239975
1.8829045 1.1071203 1.2400391
1.8760635 1.0764211 1.2401048
1.8707515 1.0501459 1.2461524
1.8692344 1.0213233 1.2530817
1.8867131 1.1319755 1.2101703
1.8798887 1.1069405 1.2096324
1.8793488 1.0765358 1.2096462
1.87068 1.0533175 1.2044245
1.8895073 1.129685 1.1788243
1.881345 1.1066446 1.1797897
1.8753176 1.0764374 1.1796849
1.8756926 1.0465745 1.1788847
1.8695982 1.0284212 1.1736501
1.8927801 1.1536796 1.1379077
1.8892062 1.1355311 1.1493759
1.8779205 1.107867 1.1501478
1.8706316 1.0754886 1.149917
1.8720787 1.0473891 1.1503873
1.8689228 1.0285152 1.1575156
1.8927799 1.1563878 1.1265332
1.889637 1.136106 1.1194538
1.8780301 1.1075809 1.1196463
1.8749799 1.0756035 1.1199502
1.8715644 1.0496377 1.1210418
1.8888179 1.1328151 1.0896182
1.8785299 1.1068822 1.0899618
1.8737555 1.0765281 1.0903465
1.8677801 1.0558106 1.0862515
1.8863579 1.1355691 1.0600922
1.8736864 1.1066167 1.0602394
1.8709198 1.0762548 1.0606182
1.8683954 1.0524182 1.0587947
1.892074 1.1563268 1.0238025
1.8847651 1.1353343 1.0288296
1.876821 1.1067868 1.0294486
1.8736008 1.0768467 1.0304842
1.8699704 1.0525341 1.0381843
1.8903257 1.1876324 0.99318898
1.8865198 1.1658429 0.9996599
1.8790592 1.1359471 0.99964511
1.8750142 1.1066825 0.99945486
1.8707395 1.0813285 1.0004885
1.8912802 1.1882701 0.98066878
1.8889834 1.1643313 0.97132683
1.882374 1.1357635 0.96940869
1.8757645 1.1067322 0.97074729
1.8710414 1.0774729 0.96873164
1.8680878 1.0551435 0.96237284
1.888564 1.1598182 0.94114292
1.8823229 1.1356024 0.93973166
1.8782794 1.1068664 0.93989384
1.8708669 1.078894 0.94118357
1.8677801 1.0548648 0.9503566
1.8905927 1.1618371 0.90802419
1.8808693 1.1360631 0.90957868
1.872512 1.1061571 0.91020739
1.868515 1.0824004 0.91014683
1.8887514 1.1599511 0.8825717
1.8756413 1.1371031 0.88155043
1.8728403 1.1066471 0.88038731
1.8711556 1.079818 0.87925994
1.8880656 1.1589348 0.84910369
1.874168 1.1392721 0.84801388
1.8684944 1.1040474 0.85122228
1.8700154 1.0800871 0.85669547
1.8916552 1.2153723 0.81282127
1.8909268 1.2024657 0.8169508
1.8884677 1.1572521 0.81956255
1.8775916 1.1354101 0.82036221
1.8716062 1.1089821 0.81797427
1.8677801 1.0903332 0.80746937
1.8927801 1.214164 0.80118138
1.8914675 1.2031686 0.7977677
1.8893002 1.1629354 0.78573394
1.8835491 1.1356528 0.78955686
1.8786781 1.1071312 0.78856099
1.8697366 1.0874846 0.78830695
1.8923959 1.1922709 0.75775212
1.8861043 1.1669462 0.75972652
1.8769116 1.1364963 0.76102912
1.8692613 1.1059003 0.76418722
1.8677801 1.0903332 0.77200091
1.8927799 1.1859981 0.73112774
1.887834 1.1672441 0.72916543
1.8764397 1.1397762 0.73139369
1.8927801 1.1852759 0.71271163
1.88978 1.179544 0.71386766
1.9184945 1.1032619 1.8290143
1.90618 1.0810306 1.8266853
1.9227802 1.1253885 1.806169
1.9128337 1.1063857 1.8092313
1.9008955 1.0779189 1.8107343
1.92278 1.1230835 1.7845019
1.9090109 1.1071106 1.7795279
1.8983458 1.0780194 1.7784436
1.9227799 1.1221615 1.752232
1.9140676 1.1053176 1.7504833
1.9007958 1.0756454 1.7498742
1.8981133 1.056175 1.7463087
1.92278 1.1240056 1.7098199
1.9128425 1.1060734 1.7196472
1.9003021 1.0777749 1.7213594
1.8971136 1.0569619 1.7272514
1.89678 0.2876361 1.7070205
1.9196303 1.1287758 1.6893207
1.9064727 1.108207 1.6894251
1.8976369 1.0864203 1.6955628
1.90128 0.28526235 1.6957366
1.9105301 0.28038305 1.6803429
1.9199052 1.1606309 1.6500221
1.9176261 1.1354042 1.65633
1.9078555 1.1085836 1.6599121
1.8991483 1.0889893 1.6573749
1.90378 0.29010224 1.6582899
1.9197801 0.27673006 1.664701
1.9198219 1.1597043 1.6346558
1.9112116 1.1380314 1.6295764
1.905889 1.1080799 1.6302123
1.8986328 1.0852436 1.6284854
1.9057431 0.29477048 1.6289014
1.9177802 0.27900791 1.6194212
1.9185108 1.1358986 1.6034489
1.90406 1.1114777 1.6002175
1.89678 1.0861268 1.6128674
1.9017798 0.29225844 1.6032376
1.9133801 0.27887964 1.6060951
1.9209381 1.1290283 1.568594
1.9047648 1.1086615 1.5699959
1.89678 1.0915587 1.5585482
1.8979801 0.28772736 1.5791056
1.9202248 1.15841 1.5372132
1.9123968 1.1382554 1.5394728
1.9012344 1.1148738 1.5454798
1.92278 1.1553535 1.5217319
1.9111732 1.1364006 1.5110695
1.8980658 1.119575 1.5039357
1.8967799 1.0412869 1.5127498
1.9108216 1.1359243 1.4798907
1.89678 1.1205289 1.4879334
1.92278 1.1848576 1.4369078
1.9157569 1.164324 1.447432
1.9027458 1.1386732 1.4490001
1.8967801 1.0969907 1.4462888
1.89678 1.0879375 1.4462888
1.9186202 1.1886871 1.4177736
1.9052023 1.1666241 1.4201109
1.8971326 1.1387709 1.424924
1.8967801 1.1182656 1.4277297
1.9221133 1.1854012 1.391969
1.9120619 1.1674582 1.3899897
1.8983399 1.144412 1.3868965
1.92278 1.1848576 1.3631477
1.9167951 1.1675221 1.3592695
1.9011294 1.1385794 1.3611953
1.8967799 1.1205289 1.3666208
1.9224944 1.1864077 1.3283628
1.918139 1.1678389 1.3297169
1.9044409 1.1395106 1.3275107
1.8967799 1.1193218 1.3171301
1.9186263 1.1890891 1.2979225
1.9088429 1.1669508 1.3000329
1.9047483 1.1376361 1.3000985
1.8970802 1.1190993 1.3047076
1.92278 1.2143615 1.2580397
1.9157212 1.1945618 1.2691791
1.9027644 1.1663766 1.2707192
1.8981643 1.1451548 1.2724888
1.92278 1.2143615 1.2543517
1.9149945 1.194662 1.2423674
1.9044182 1.1665285 1.2397952
1.8976132 1.1477579 1.239863
1.9170561 1.1891986 1.2084999
1.9044204 1.1665335 1.2088456
1.8988326 1.1468096 1.2072135
1.9188255 1.1928086 1.1786182
1.9080772 1.1668867 1.1795224
1.8991994 1.1440896 1.1818142
1.9214467 1.216651 1.1389027
1.9177382 1.1948943 1.1471819
1.9058933 1.1671034 1.1508516
1.89678 1.1494992 1.1583976
1.9195468 1.2191091 1.1200417
1.907642 1.1958448 1.1209083
1.9002302 1.1680084 1.1185875
1.89678 1.1494992 1.1058891
1.9213517 1.2160242 1.0925057
1.9083945 1.1961299 1.0900754
1.9003897 1.1661458 1.0891802
1.8974229 1.1480007 1.0895183
1.9214469 1.2168558 1.0619329
1.9082177 1.1961157 1.059496
1.8988432 1.1659981 1.0603341
1.8967799 1.1494992 1.0576055
1.9217367 1.2174361 1.0297117
1.9098262 1.1964989 1.0298443
1.8987803 1.1686101 1.0319446
1.8967799 1.1482921 1.0431204
1.9190168 1.2211506 0.99707544
1.906132 1.1983647 1.0019063
1.8975301 1.1776419 1.0116087
1.9227799 1.2438656 0.95931172
1.913983 1.2257034 0.96983212
1.9000632 1.1972437 0.96774924
1.8972087 1.1769619 0.96198249
1.9167299 1.2224194 0.94282591
1.9066489 1.1954713 0.93954384
1.8984598 1.1741519 0.93806267
1.9197454 1.2196931 0.9072727
1.907398 1.1959162 0.91001642
1.8977798 1.1744338 0.9152779
1.9209746 1.2218122 0.88345331
1.9108471 1.1965367 0.87995517
1.8999001 1.1738622 0.87777823
1.9177802 1.2183243 0.8442874
1.9110961 1.1970112 0.84888029
1.9020153 1.1737831 0.85006225
1.9101055 1.2260382 0.81988466
1.8988935 1.1924484 0.82377183
1.8994372 1.1726358 0.82012582
1.92278 1.2438656 0.7915076
1.9093313 1.2281215 0.79028904
1.8984644 1.1941628 0.78780979
1.8992999 1.1736563 0.79437017
1.9110155 1.2250155 0.75856733
1.8984798 1.2053608 0.7628485
1.9188712 1.2495378 0.72829717
1.9068158 1.226615 0.73055303
1.8992903 1.2009456 0.72951925
1.9211802 1.2480541 0.70950365
1.9124758 1.2283583 0.70926434
1.9002414 1.1997818 0.71151251
1.9502603 1.1900426 1.835408
1.9448988 1.1671604 1.8342469
1.9369053 1.137502 1.8332348
1.9257801 1.1171759 1.831619
1.9523067 1.1878024 1.8133585
1.9443336 1.1666718 1.809037
1.93162 1.1382453 1.8099076
1.9257801 1.1186543 1.8234885
1.9522351 1.1902173 1.7749166
1.945255 1.166199 1.7799721
1.9345301 1.1369308 1.7799695
1.9478999 1.1946018 1.7488489
1.9383062 1.1662471 1.7498938
1.9310586 1.1358941 1.7493153
1.9464585 1.1946971 1.7191143
1.9363011 1.1659594 1.7198977
1.9330511 1.1367952 1.7213576
1.9257801 1.1186543 1.7274003
1.951438 1.2264162 1.6829633
1.9507029 1.1964514 1.6889572
1.9439616 1.1666009 1.6907666
1.9317516 1.1423533 1.6901246
1.9527801 1.2445251 1.6722552
1.9468708 1.2262331 1.6591933
1.9414593 1.1965078 1.6584833
1.9341298 1.1673963 1.6624129
1.9281373 1.1415427 1.6692123
1.9307801 0.27108711 1.653479
1.94795 1.2218809 1.629263
1.9388944 1.1960645 1.6291146
1.9305432 1.1711575 1.6272782
1.9314163 0.27104759 1.6354836
1.9527801 1.2247589 1.611074
1.9492146 1.1923323 1.6017489
1.9370377 1.1663585 1.5996944
1.9294469 1.1446093 1.5925325
1.9527801 1.2196761 1.5562934
1.9489135 1.1949114 1.566936
1.9399524 1.166877 1.5710151
1.9306086 1.1419435 1.5710294
1.9526603 1.2195107 1.5409098
1.9463044 1.1962942 1.5404481
1.9302274 1.1708351 1.5404732
1.9457579 1.2223754 1.5097282
1.9373924 1.1961572 1.5099303
1.9295707 1.1670632 1.5080529
1.9257801 1.1500677 1.5038104
1.9439956 1.2236151 1.4796183
1.9307262 1.1968415 1.4787031
1.9280534 1.1680896 1.4791362
1.9257799 1.1492757 1.4834841
1.9449276 1.2259201 1.4506081
1.933817 1.1976082 1.4498714
1.9269801 1.176676 1.4565523
1.9522802 1.2457076 1.4117906
1.9422538 1.2269597 1.4207207
1.9298635 1.2035333 1.4186616
1.9497801 1.2500004 1.3878629
1.9412799 1.2264891 1.3903235
1.9310106 1.1986599 1.3898017
1.9521488 1.2781074 1.358922
1.9488422 1.2571055 1.3613513
1.9442799 1.2264642 1.3610227
1.9306837 1.1976953 1.3597518
1.9497958 1.2570484 1.3314587
1.9425769 1.2262429 1.3309891
1.9285417 1.1997629 1.3307832
1.9511136 1.2535629 1.3120034
1.945447 1.2249663 1.3024905
1.9297477 1.2025841 1.3022879
1.9501801 1.2479103 1.2618608
1.9387604 1.2270212 1.2705992
1.9275494 1.2078542 1.2776945
1.9527801 1.2759001 1.2292408
1.9499764 1.255741 1.240175
1.9355255 1.227365 1.2410699
1.9281437 1.2073053 1.2324719
1.9517802 1.2800006 1.2096963
1.94928 1.2571735 1.2111619
1.9399549 1.2262756 1.2110518
1.9301515 1.2041839 1.2095538
1.9463801 1.2825983 1.1810691
1.9357098 1.2573566 1.1798942
1.9329288 1.2284061 1.1791308
1.9272804 1.2082759 1.1792507
1.9476374 1.2810367 1.1537051
1.9395255 1.2557056 1.1491007
1.9305251 1.2277861 1.1501737
1.9263427 1.2051111 1.1563768
1.9527801 1.2759001 1.1313509
1.9437801 1.2581525 1.1201718
1.9287212 1.2349473 1.1191846
1.9519802 1.2837982 1.0799922
1.9439605 1.2564058 1.0896862
1.9304543 1.2298353 1.0889641
1.9477133 1.2852674 1.0606843
1.9407514 1.2562728 1.0595274
1.9300168 1.2304099 1.059271
1.9487976 1.2861366 1.0300556
1.9386318 1.2570633 1.0292438
1.9277563 1.2329756 1.0309826
1.9484378 1.3126549 0.99415666
1.9463913 1.286714 0.99946463
1.939746 1.257643 0.99941194
1.9287134 1.2345015 1.0029029
1.9514678 1.3372014 0.97057253
1.9441702 1.3167487 0.9706319
1.9392982 1.2870027 0.96944976
1.9307173 1.2582068 0.97049272
1.9257801 1.2406123 0.98271668
1.9520302 1.3107426 0.95188355
1.9471649 1.2861345 0.94649982
1.9401753 1.2558103 0.94103587
1.9297134 1.234516 0.93440866
1.95218 1.3076655 0.89831871
1.9443424 1.2854252 0.90201515
1.9392207 1.2551351 0.90641332
1.9302504 1.2334155 0.91090667
1.9524801 1.3069682 0.88695121
1.94494 1.2866896 0.88051081
1.9341329 1.2574375 0.88028419
1.9271803 1.2343067 0.87612927
1.9498159 1.2810028 0.84385866
1.9416417 1.2565589 0.84967363
1.9297049 1.2303524 0.85162801
1.9527801 1.3061769 0.81760126
1.9479573 1.2873546 0.82048297
1.94178 1.2566531 0.8193748
1.9291648 1.2385409 0.82350731
1.9527804 1.2801819 0.79634011
1.9398569 1.2584786 0.79060888
1.9527801 1.2805614 0.74714208
1.9431496 1.2560889 0.75860691
1.9273633 1.2396098 0.76043439
1.9517801 1.3070891 0.71882254
1.943451 1.2865772 0.73023683
1.9331369 1.262997 0.73416412
1.9527801 1.334885 0.69523895
1.946753 1.3143048 0.70326751
1.935174 1.2871851 0.70708835
1.928192 1.2642676 0.7075572
1.98478 1.3079685 1.8605254
1.9847801 1.299175 1.8621742
1.9770659 1.2218183 1.8574042
1.9847801 1.304561 1.8514023
1.9831675 1.2898445 1.8361125
1.9787328 1.2557613 1.8325467
1.9738023 1.2264608 1.8390605
1.959371 1.2056043 1.8362339
1.9837803 1.3073293 1.8071473
1.9777057 1.2862281 1.8103786
1.9700304 1.2565496 1.8085787
1.9695768 1.2267275 1.8106687
1.9598469 1.2015891 1.8088593
1.9845898 1.3073845 1.7833314
1.9814634 1.2872049 1.780463
1.9729544 1.2572187 1.7793498
1.9630162 1.2272694 1.7796798
1.9583637 1.2020863 1.7828181
1.9838392 1.3120142 1.7480378
1.9793272 1.2869231 1.7490377
1.9748565 1.2570879 1.7495002
1.9626894 1.2271657 1.7497735
1.95678 1.2100978 1.7523305
1.9823593 1.3080435 1.7243284
1.9757289 1.2868761 1.719412
1.9701619 1.2572342 1.7192539
1.9637209 1.2267892 1.7214882
1.95678 1.2107079 1.7212132
1.9826932 1.3079925 1.688786
1.9751132 1.2871984 1.6890907
1.9630108 1.257403 1.6895339
1.9578189 1.2297097 1.6992648
1.9567801 1.2092398 1.7035953
1.9842801 1.3058171 1.6696784
1.9807997 1.2843033 1.6620522
1.9681673 1.2577655 1.6595381
1.9575301 1.2404925 1.6528311
1.9841136 1.2828228 1.6293666
1.9715205 1.2575094 1.6302787
1.9581921 1.2375314 1.6282279
1.9847802 1.366115 1.5932604
1.9806277 1.3468887 1.5972883
1.9844166 1.3167064 1.5916278
1.9839679 1.2861383 1.5974947
1.969341 1.2581131 1.5998685
1.958907 1.2285666 1.5986506
1.959128 1.2064846 1.5964577
1.9847801 1.3645761 1.5794108
1.9827193 1.3437406 1.5768031
1.9828916 1.3171279 1.5701166
1.9803181 1.2877562 1.5684328
1.9709257 1.2586877 1.5701394
1.9586105 1.2290313 1.5710285
1.958923 1.2070712 1.5778654
1.9837803 1.342787 1.536369
1.9757265 1.3166945 1.539206
1.9723116 1.287411 1.5385468
1.9703341 1.2567042 1.5393671
1.9583874 1.2333287 1.5399497
1.9847801 1.3645761 1.5159333
1.9806423 1.3464683 1.5105908
1.9765478 1.3160822 1.5102091
1.9817802 1.2897512 1.5117314
1.9769676 1.2570677 1.5111346
1.9582803 1.2387106 1.5094287
1.976645 1.3439717 1.4792539
1.9652561 1.3167863 1.480054
1.9783874 1.2966557 1.480479
1.9736086 1.2543318 1.480498
1.95728 1.2398276 1.4815642
1.9801521 1.3419721 1.4495506
1.9761183 1.3162376 1.4512907
1.9829341 1.2895331 1.445271
1.9706374 1.255949 1.4483191
1.9567801 1.2413296 1.439327
1.9847801 1.3382875 1.4300141
1.9809704 1.3142171 1.4234425
1.974501 1.2871419 1.4210061
1.9643719 1.2590777 1.4204644
1.9847802 1.3425426 1.3791856
1.9828088 1.3124417 1.3877074
1.9701836 1.2863688 1.3894997
1.9593018 1.2635603 1.3927901
1.9847801 1.3645761 1.3524306
1.9775213 1.346679 1.3598994
1.9728622 1.3173876 1.3588451
1.9611316 1.2913901 1.3579104
1.9847801 1.3645761 1.3428128
1.9774399 1.3457007 1.3307188
1.9684151 1.316968 1.3287209
1.9620712 1.2877724 1.3284463
1.9567801 1.2715316 1.3260692
1.9824166 1.3752263 1.2894281
1.9841133 1.3400768 1.3055985
1.981761 1.3169553 1.2990665
