# .PCD v0.7 - Point Cloud Data file format
VERSION 0.7
FIELDS x y z
SIZE 4 4 4
TYPE F F F
COUNT 1 1 1
WIDTH 1457
HEIGHT 1
VIEWPOINT 0 0 0 1 0 0 0
POINTS 1457
DATA ascii
-0.40520778 -0.16421452 1.4843317
-0.37543842 -0.16425313 1.4846798
-0.34565508 -0.16429164 1.4850286
-0.31585768 -0.16433023 1.4853766
-0.28505298 -0.16430391 1.4857394
-0.25417081 -0.16448025 1.4860965
-0.22424972 -0.16444878 1.4864488
-0.19439536 -0.16448739 1.4867977
-0.16452689 -0.16452605 1.4871475
-0.13464443 -0.16456476 1.4874966
-0.10474797 -0.16460344 1.4878467
-0.074837416 -0.16464216 1.4881967
-0.04491277 -0.16468085 1.4885466
-0.014974059 -0.16471964 1.4888967
0.014978747 -0.16475841 1.4892472
0.044945665 -0.16479719 1.4895977
0.074926674 -0.16483594 1.4899486
0.10492186 -0.16487482 1.4902998
0.1349311 -0.16491361 1.4906501
0.16495451 -0.16495247 1.4910018
0.19499207 -0.16499136 1.491353
0.22504373 -0.16503024 1.4917043
0.25510961 -0.16506913 1.4920563
0.28518984 -0.16510805 1.4924083
0.31528407 -0.16514701 1.4927602
0.3453925 -0.16518605 1.493113
0.37551486 -0.16522497 1.4934651
0.40565211 -0.16526398 1.4938172
0.43580332 -0.16530299 1.49417
0.46552369 -0.16561192 1.4945102
0.49459109 -0.16510576 1.4948658
0.52418488 -0.1654174 1.495204
0.55439204 -0.1654565 1.4955575
0.58461356 -0.16549562 1.4959108
0.61484939 -0.16553473 1.4962647
0.64509922 -0.16557388 1.496619
0.67536366 -0.165613 1.4969726
0.70564246 -0.16565228 1.4973269
0.73541003 -0.16596887 1.4976668
0.76460272 -0.16545041 1.4980251
0.79439831 -0.1657671 1.4983647
0.82473314 -0.16580637 1.4987203
0.85508215 -0.16584566 1.4990748
0.88537264 -0.16595642 1.4994268
0.91440803 -0.16948313 1.4996659
0.94262367 -0.17516388 1.4998325
0.96261805 -0.17923373 1.4999496
-1.3525279 -0.13443214 1.4740759
-1.3347728 -0.13577412 1.4742458
-1.305113 -0.13559483 1.4745985
-1.2752122 -0.13537189 1.4749558
-1.2448084 -0.13591486 1.4752969
-1.214879 -0.13569196 1.4756554
-1.1853942 -0.13565388 1.476002
-1.1550014 -0.13575639 1.4763558
-1.1245943 -0.13585892 1.4767098
-1.0950668 -0.13582091 1.4770576
-1.0653701 -0.13567728 1.47741
-1.0346 -0.13552962 1.4777751
-1.0045519 -0.13485903 1.4781475
-0.97504693 -0.13489054 1.4784929
-0.94552755 -0.13492206 1.4788387
-0.91514224 -0.13478261 1.4791988
-0.88455719 -0.13516632 1.4795469
-0.85477567 -0.13501899 1.4799006
-0.82519996 -0.13505055 1.4802463
-0.79561096 -0.13508216 1.4805927
-0.76515293 -0.13494258 1.480955
-0.73474854 -0.13467896 1.4813192
-0.70465791 -0.13411784 1.4816879
-0.67501152 -0.13414927 1.4820354
-0.64535135 -0.13418065 1.4823825
-0.61567754 -0.13421212 1.4827297
-0.58521974 -0.13403806 1.4830921
-0.55448169 -0.13448949 1.4834398
-0.52444887 -0.13430877 1.483798
-0.49471819 -0.13434029 1.4841458
-0.46497348 -0.1343718 1.4844936
-0.43521485 -0.13440333 1.4848423
-0.4054423 -0.13443485 1.4851905
-0.37565574 -0.13446641 1.4855397
-0.34585506 -0.134498 1.4858881
-0.31511953 -0.13440771 1.4862511
-0.28424153 -0.13469237 1.4866058
-0.25423729 -0.13459505 1.4869602
-0.22437966 -0.13462673 1.4873102
-0.19450803 -0.13465835 1.4876593
-0.16462231 -0.13469002 1.4880096
-0.1347225 -0.13472168 1.4883597
-0.10480872 -0.13475339 1.4887096
-0.074880831 -0.1347851 1.4890598
-0.044938833 -0.13481683 1.4894104
-0.014982749 -0.13484855 1.489761
0.01498745 -0.1348803 1.4901118
0.044971768 -0.13491209 1.4904628
0.074970208 -0.13494386 1.4908139
0.10498278 -0.13497564 1.4911652
0.13500944 -0.13500749 1.4915165
0.16505039 -0.13503928 1.4918681
0.19510549 -0.13507117 1.49222
0.2251747 -0.13510302 1.4925719
0.25525808 -0.13513489 1.4929245
0.28535578 -0.13516678 1.4932766
0.31546754 -0.13519867 1.4936289
0.34559363 -0.13523062 1.4939814
0.37573391 -0.13526252 1.4943343
0.40581599 -0.1353658 1.4946845
0.43514043 -0.13544068 1.495026
0.46430314 -0.13517317 1.4953762
0.49427995 -0.13538812 1.4957215
0.52449042 -0.13542013 1.4960756
0.55471516 -0.13545215 1.4964296
0.58495438 -0.13548416 1.4967835
0.61520791 -0.13551624 1.4971371
0.64547551 -0.13554832 1.4974916
0.67568469 -0.13565189 1.4978436
0.70513308 -0.13572694 1.4981867
0.73442072 -0.13545901 1.498538
0.7645238 -0.13567443 1.4988852
0.79486203 -0.13570657 1.49924
0.82449615 -0.1367064 1.4995592
0.85369557 -0.14208932 1.4997461
0.87918472 -0.1471892 1.4998976
-1.3530828 -0.10489672 1.4749241
-1.3352587 -0.10491159 1.4751328
-1.3051815 -0.10469621 1.4754924
-1.2747697 -0.10520796 1.475834
-1.2450128 -0.10498674 1.4761897
-1.2153134 -0.10479381 1.4765443
-1.1848567 -0.10524765 1.4768884
-1.1546384 -0.10506198 1.4772483
-1.1251861 -0.10508655 1.4775931
-1.0952868 -0.10484652 1.4779515
-1.0647779 -0.10539816 1.4782931
-1.034904 -0.10465004 1.4786654
-1.005152 -0.10412642 1.4790293
-0.97547132 -0.10402221 1.4793811
-0.94489264 -0.10429854 1.4797319
-0.91443056 -0.10420122 1.4800919
-0.88486522 -0.10422561 1.4804382
-0.85528624 -0.10424998 1.4807851
-0.82553524 -0.10414575 1.4811369
-0.79488462 -0.10442229 1.4814881
-0.7643497 -0.10432488 1.4818497
-0.73471427 -0.1043494 1.4821967
-0.70506489 -0.10437386 1.4825443
-0.67540157 -0.10439832 1.4828914
-0.64572448 -0.10442276 1.4832392
-0.61511683 -0.1043253 1.4836013
-0.58436525 -0.10460223 1.4839541
-0.5544861 -0.10449797 1.4843075
-0.52475214 -0.10452247 1.4846561
-0.4950043 -0.10454702 1.4850043
-0.46524253 -0.10457157 1.4853532
-0.43546668 -0.10459612 1.4857017
-0.40567681 -0.10462066 1.4860504
-0.37587327 -0.10464525 1.4863998
-0.34506208 -0.10460435 1.4867625
-0.31417295 -0.10476644 1.4871204
-0.28424534 -0.10472076 1.4874727
-0.25438458 -0.10474543 1.4878227
-0.22450979 -0.10477 1.4881723
-0.19462079 -0.10479469 1.4885222
-0.16471778 -0.1048194 1.4888729
-0.13480069 -0.10484406 1.4892229
-0.10486956 -0.10486871 1.4895736
-0.07492429 -0.1048934 1.4899242
-0.044964921 -0.10491808 1.4902751
-0.014991446 -0.10494287 1.4906261
0.014996151 -0.10496753 1.4909774
0.044997897 -0.10499229 1.4913286
0.075013764 -0.10501703 1.4916804
0.10504381 -0.1050418 1.4920318
0.13508801 -0.10506652 1.492384
0.16514637 -0.10509129 1.492736
0.195219 -0.10511614 1.4930878
0.22530574 -0.10514103 1.4934404
0.25540662 -0.10516578 1.4937929
0.28552175 -0.1051906 1.4941461
0.31565118 -0.10521542 1.4944981
0.3457948 -0.10524025 1.4948518
0.37565935 -0.10548824 1.495195
0.40472424 -0.1050583 1.4955487
0.43415451 -0.10531314 1.4958869
0.46435422 -0.10533802 1.4962398
0.49456799 -0.10536292 1.4965943
0.52479661 -0.10538794 1.4969481
0.55503911 -0.1054128 1.4973023
0.58529568 -0.10543779 1.4976572
0.61556697 -0.10546267 1.4980108
0.64555651 -0.10571127 1.498356
0.67474687 -0.10528041 1.4987109
0.70430094 -0.10553586 1.4990507
0.73462862 -0.10556088 1.4994059
0.76363772 -0.10878232 1.4996527
0.79229766 -0.11451059 1.4998238
0.81391555 -0.11889058 1.4999504
-1.3537995 -0.073893234 1.4758128
-1.3350047 -0.074224442 1.4760238
-1.3046472 -0.074312203 1.4763775
-1.2751689 -0.074259698 1.4767252
-1.2452177 -0.074021563 1.4770832
-1.2147628 -0.074551091 1.4774257
-1.1847831 -0.07431297 1.4777846
-1.155327 -0.074330322 1.4781295
-1.1252443 -0.074098468 1.4784887
-1.0947317 -0.074618086 1.4788322
-1.0647688 -0.074383676 1.4791911
-1.0352569 -0.074401088 1.4795361
-1.0053425 -0.074180968 1.4798939
-0.97477114 -0.074669816 1.4802382
-0.94452649 -0.074454546 1.4806004
-0.91495824 -0.074471973 1.4809457
-0.88537651 -0.074489407 1.4812926
-0.85538936 -0.074269079 1.4816513
-0.82474744 -0.074758507 1.481997
-0.79442996 -0.074543007 1.4823583
-0.76479137 -0.074560463 1.4827062
-0.73513889 -0.074577928 1.4830536
-0.70547247 -0.074595422 1.4834013
-0.67555487 -0.074436501 1.4837568
-0.64481992 -0.074800864 1.484107
-0.61426693 -0.074649148 1.4844701
-0.58454406 -0.074666664 1.4848183
-0.55480707 -0.074684188 1.4851664
-0.52505589 -0.074701719 1.4855149
-0.49529079 -0.074719265 1.4858639
-0.46551207 -0.074736826 1.4862133
-0.43571916 -0.074754365 1.4865621
-0.40567258 -0.074595176 1.4869199
-0.37480816 -0.074960344 1.4872712
-0.3441245 -0.074808352 1.4876354
-0.31427449 -0.074825928 1.4879856
-0.28441033 -0.074843526 1.4883356
-0.25453222 -0.074861139 1.4886855
-0.22464 -0.074878745 1.4890355
-0.19473374 -0.074896395 1.4893863
-0.16481344 -0.074913993 1.4897366
-0.13487899 -0.074931659 1.4900875
-0.10493043 -0.074949294 1.4904383
-0.074967831 -0.074966952 1.4907897
-0.044991035 -0.074984618 1.4911408
-0.015000162 -0.075002283 1.4914922
0.015004877 -0.075019963 1.4918441
0.045024045 -0.075037666 1.4921962
0.075057417 -0.075055376 1.4925478
0.10510495 -0.075073071 1.4929003
0.13516663 -0.075090781 1.4932525
0.16524251 -0.075108506 1.4936049
0.19533265 -0.075126238 1.4939572
0.2254369 -0.075143978 1.4943101
0.25555539 -0.075161733 1.494663
0.28568813 -0.075179495 1.4950165
0.31583518 -0.075197242 1.4953693
0.34547561 -0.075492926 1.4957085
0.37453696 -0.074953631 1.4960651
0.40420473 -0.075249314 1.4964049
0.43440783 -0.075267121 1.4967585
0.464625 -0.075284921 1.4971129
0.49485666 -0.07530275 1.4974676
0.52510267 -0.075320572 1.4978219
0.555363 -0.075338408 1.4981765
0.58563775 -0.075356238 1.498531
0.61540216 -0.07565257 1.4988718
0.64458936 -0.075112194 1.4992303
0.6737802 -0.076170079 1.4995426
0.70294529 -0.081310682 1.4997356
0.72910804 -0.086601302 1.4998896
-1.3536179 -0.044553418 1.4766642
-1.3347229 -0.044560086 1.4768858
-1.3053197 -0.044570506 1.4772303
-1.2751427 -0.044375222 1.47759
-1.2446803 -0.044804066 1.4779351
-1.2149245 -0.044602469 1.47829
-1.1854653 -0.044612899 1.4786355
-1.1551578 -0.044454399 1.4789959
-1.1246337 -0.044810463 1.4793435
-1.094898 -0.044644941 1.4796973
-1.065383 -0.044655371 1.4800439
-1.0352384 -0.044415988 1.4804043
-1.0046659 -0.044929374 1.4807483
-0.97464323 -0.044687472 1.4811072
-0.945072 -0.044697911 1.481455
-0.9154864 -0.04470839 1.4818013
-0.88526952 -0.044468749 1.4821631
-0.85462564 -0.044982757 1.4825077
-0.82453072 -0.044740602 1.4828676
-0.79488915 -0.04475107 1.483215
-0.76523328 -0.044761568 1.4835631
-0.73556393 -0.044772055 1.483911
-0.70541126 -0.044529546 1.484272
-0.67468178 -0.045044307 1.4846175
-0.64434898 -0.04480432 1.4849806
-0.61462253 -0.044814844 1.4853288
-0.58488226 -0.044825353 1.4856776
-0.5551281 -0.044835884 1.4860269
-0.52536005 -0.044846419 1.4863756
-0.49557772 -0.044856951 1.4867249
-0.46578169 -0.044867482 1.4870741
-0.43542266 -0.044620477 1.4874376
-0.40456536 -0.045146894 1.487785
-0.37417704 -0.044899896 1.4881481
-0.34432411 -0.044910468 1.4884983
-0.31445673 -0.044921048 1.4888483
-0.28457534 -0.044931602 1.4891992
-0.25467986 -0.044942159 1.4895496
-0.2247704 -0.044952758 1.4898998
-0.19484687 -0.044963345 1.4902508
-0.16490917 -0.04497394 1.4906021
-0.13495728 -0.044984534 1.4909531
-0.10499141 -0.044995129 1.4913046
-0.075011402 -0.04500575 1.4916564
-0.045017205 -0.045016341 1.492008
-0.01500888 -0.045026951 1.4923594
0.0150136 -0.045037601 1.492712
0.045050241 -0.045048203 1.4930643
0.07510107 -0.045058843 1.4934163
0.10516611 -0.045069471 1.4937688
0.13524528 -0.045080122 1.4941219
0.16533875 -0.045090765 1.4944746
0.19544637 -0.045101415 1.4948272
0.22556822 -0.045112081 1.4951804
0.25570428 -0.045122731 1.4955337
0.28585458 -0.045133401 1.4958876
0.31534347 -0.045402274 1.496226
0.34441051 -0.044901084 1.4965814
0.37423414 -0.045164675 1.4969237
0.40444055 -0.045175359 1.4972783
0.43466121 -0.045186058 1.4976324
0.46489638 -0.045196727 1.497987
0.4951458 -0.045207452 1.4983416
0.52540922 -0.045218118 1.4986964
0.55568743 -0.045228876 1.4990518
0.58529949 -0.045498326 1.4993914
0.61327887 -0.047770839 1.4996532
0.6418072 -0.053817503 1.4998133
0.6640408 -0.058457118 1.4999403
-1.3543972 -0.014858743 1.477514
-1.3353357 -0.014732315 1.4777412
-1.304948 -0.014920992 1.4780928
-1.2746134 -0.014938197 1.4784478
-1.245087 -0.014871638 1.4787965
-1.2153143 -0.014662641 1.479152
-1.1848053 -0.015085055 1.4794976
-1.1545526 -0.014882317 1.4798585
-1.1250482 -0.014885796 1.4802049
-1.0954506 -0.014819103 1.4805535
-1.0650884 -0.014789616 1.4809115
-1.0345763 -0.015072843 1.4812616
-1.0047804 -0.014899978 1.4816157
-0.97520524 -0.014903473 1.4819627
-0.94553834 -0.014836707 1.4823129
-0.91510314 -0.014807184 1.4826709
-0.88451952 -0.01509075 1.4830215
-0.85465235 -0.014917696 1.4833771
-0.82500756 -0.0149212 1.4837248
-0.79534853 -0.01492469 1.4840729
-0.76567614 -0.014928195 1.4844209
-0.73521972 -0.01472472 1.4847844
-0.70448226 -0.015148688 1.4851329
-0.67445123 -0.014938959 1.4854913
-0.64472204 -0.014942468 1.4858402
-0.61497861 -0.014945967 1.4861891
-0.58522105 -0.014949481 1.4865381
-0.55544978 -0.014952989 1.4868877
-0.52566427 -0.014956514 1.487237
-0.49570519 -0.01483051 1.4875926
-0.46505967 -0.014916742 1.4879494
-0.43433258 -0.015144497 1.4883033
-0.40425083 -0.014970831 1.4886616
-0.37439439 -0.014974357 1.489012
-0.34452379 -0.014977885 1.4893621
-0.3146393 -0.014981409 1.4897126
-0.28474051 -0.014984933 1.4900635
-0.25482786 -0.01498846 1.4904145
-0.2249009 -0.014991996 1.4907656
-0.19496009 -0.014995524 1.4911165
-0.16500494 -0.014999059 1.4914683
-0.13503581 -0.015002592 1.4918197
-0.10505244 -0.015006133 1.4921718
-0.075055003 -0.01500967 1.4925237
-0.045043394 -0.015013211 1.4928758
-0.015017616 -0.01501675 1.4932281
0.015022329 -0.015020295 1.4935802
0.045076471 -0.015023841 1.4939332
0.07514482 -0.015027392 1.4942856
0.10522734 -0.015030943 1.494639
0.13532408 -0.015034492 1.4949917
0.16543502 -0.015038046 1.4953451
0.19556028 -0.015041598 1.4956989
0.22569972 -0.015045154 1.4960521
0.25585344 -0.015048715 1.4964057
0.28526676 -0.015283366 1.4967442
0.31434053 -0.014831655 1.4970989
0.34424284 -0.015059141 1.4974432
0.37445259 -0.015062697 1.4977973
0.40467659 -0.015066271 1.4981521
0.43491501 -0.015069833 1.4985068
0.46516779 -0.015073407 1.498862
0.49543485 -0.015076976 1.4992167
0.52511775 -0.015843254 1.4995432
0.55398494 -0.021004047 1.4997325
0.57982332 -0.025980024 1.4998918
-1.3546903 0.015692726 1.4783944
-1.3347702 0.014622564 1.4785973
-1.304721 0.014876103 1.4789571
-1.2752695 0.014879577 1.4793034
-1.2452667 0.015139803 1.479663
-1.2147579 0.014630031 1.4800062
-1.1847259 0.014890263 1.4803656
-1.1552184 0.014893751 1.480713
-1.1253852 0.015110176 1.4810686
-1.0948157 0.014694186 1.481415
-1.0645021 0.01490446 1.4817765
-1.0349386 0.014907953 1.4821247
-1.0053605 0.014911449 1.4824717
-0.97537929 0.015153585 1.4828304
-0.94474107 0.014684664 1.4831765
-0.91442865 0.01492219 1.4835392
-0.88479483 0.01492569 1.4838871
-0.85514677 0.014929183 1.4842353
-0.82548451 0.014932689 1.484583
-0.79549378 0.015149694 1.4849416
-0.76476735 0.014732613 1.4852898
-0.73429292 0.014943453 1.4856539
-0.70457458 0.014946968 1.4860024
-0.67484182 0.014950478 1.4863515
-0.64509535 0.014953991 1.4867009
-0.61533487 0.014957507 1.4870501
-0.58556032 0.014961027 1.4874002
-0.55577135 0.01496454 1.4877492
-0.52542108 0.015226282 1.4881133
-0.49457079 0.014713611 1.4884603
-0.46419069 0.014975356 1.4888244
-0.43434513 0.014978877 1.489175
-0.40448543 0.014982403 1.4895252
-0.37461162 0.014985932 1.4898763
-0.34472385 0.014989465 1.4902269
-0.31482199 0.014992992 1.4905782
-0.284906 0.014996522 1.4909288
-0.25497586 0.015000065 1.4912808
-0.22503175 0.015003595 1.4916317
-0.19507334 0.015007135 1.4919834
-0.16510093 0.015010671 1.4923354
-0.1351143 0.015014218 1.4926878
-0.1051136 0.015017757 1.4930395
-0.075098664 0.015021297 1.4933921
-0.045069616 0.015024848 1.4937447
-0.015026356 0.015028398 1.4940974
0.015031088 0.015031946 1.4944504
0.045102719 0.015035497 1.4948032
0.075188577 0.01503905 1.4951563
0.10528867 0.0150426 1.4955095
0.1354029 0.015046157 1.4958632
0.16553152 0.015049719 1.496217
0.19567426 0.015053281 1.4965703
0.22583133 0.015056839 1.496925
0.25540495 0.014785599 1.4972643
0.28447574 0.015335606 1.4976207
0.31423053 0.015067279 1.4979626
0.34444368 0.015070844 1.498317
0.37467095 0.015074417 1.498672
0.40491304 0.015077988 1.499027
0.4351691 0.015081562 1.4993817
0.46418178 0.012331992 1.4996431
0.49301475 0.0064789751 1.4998119
0.51533908 0.0018857276 1.4999412
-1.3549073 0.044633653 1.4792295
-1.3349274 0.044640735 1.4794641
-1.305395 0.044721454 1.479813
-1.2750977 0.044765286 1.4801698
-1.2446512 0.044496253 1.4805195
-1.2149199 0.04468327 1.4808735
-1.1854097 0.044693738 1.4812205
-1.1552705 0.044955108 1.4815819
-1.1247013 0.044462081 1.4819262
-1.0946836 0.044725895 1.4822865
-1.065117 0.04473637 1.4826331
-1.0355368 0.04474685 1.4829813
-1.0052499 0.044991717 1.4833434
-0.97460788 0.044529658 1.4836895
-0.94459462 0.044779096 1.4840494
-0.91495734 0.044789586 1.4843968
-0.88530612 0.044800103 1.4847453
-0.85564137 0.044810601 1.4850941
-0.82526761 0.045055855 1.4854574
-0.79454041 0.044593133 1.4858048
-0.76444036 0.044842947 1.4861648
-0.73471874 0.044853475 1.4865142
-0.70498252 0.044864021 1.4868633
-0.67523313 0.044874556 1.4872128
-0.64546919 0.044885084 1.4875624
-0.61569148 0.044895649 1.4879124
-0.58558255 0.045120373 1.4882722
-0.55488187 0.044833258 1.488624
-0.52430403 0.044798311 1.4889821
-0.49430913 0.044938657 1.489338
-0.46446016 0.044949263 1.4896891
-0.43459725 0.044959836 1.4900391
-0.40472031 0.044970423 1.4903901
-0.37482947 0.044981018 1.4907411
-0.34492415 0.044991605 1.4910924
-0.31500489 0.045002222 1.4914439
-0.28507158 0.045012828 1.4917955
-0.25512412 0.045023467 1.4921473
-0.22516251 0.045034081 1.4924998
-0.19518682 0.045044698 1.4928513
-0.16519699 0.045055326 1.4932039
-0.13519299 0.045065954 1.4935563
-0.10517476 0.045076605 1.4939086
-0.075142391 0.045087244 1.4942616
-0.045095854 0.045097895 1.4946145
-0.015035105 0.045108553 1.4949681
0.015039842 0.045119204 1.4953203
0.045129016 0.045129877 1.4956743
0.075232409 0.045140542 1.4960276
0.10535007 0.045151208 1.4963815
0.13548188 0.045161888 1.4967355
0.16562805 0.045172565 1.4970891
0.1957884 0.045183279 1.4974438
0.22559507 0.044940066 1.4977866
0.25467116 0.045463331 1.4981427
0.28419754 0.045214593 1.4984821
0.31441405 0.04522533 1.4988371
0.3446449 0.045236036 1.4991921
0.37443766 0.044684425 1.499526
0.40346688 0.039738469 1.4997233
0.4301416 0.034372605 1.4998814
-1.3556883 0.074431367 1.4800826
-1.3353111 0.074681915 1.4803293
-1.3048085 0.074227616 1.4806733
-1.2746348 0.074479289 1.4810354
-1.2451349 0.074496716 1.4813823
-1.2153875 0.074691109 1.4817367
-1.1848936 0.074428812 1.4820867
-1.1545212 0.07447993 1.4824446
-1.1248862 0.074567787 1.4827951
-1.0953163 0.074585281 1.4831427
-1.0654198 0.074816436 1.4835002
-1.034786 0.074413769 1.4838481
-1.0044074 0.074639007 1.4842112
-0.97478145 0.074656516 1.4845595
-0.94514114 0.074674033 1.4849075
-0.91548687 0.074691556 1.485256
-0.88542747 0.074948654 1.4856164
-0.85471064 0.07449282 1.4859636
-0.82431936 0.074745446 1.4863275
-0.79460782 0.074763007 1.4866766
-0.7648831 0.074780568 1.4870259
-0.73514414 0.074798144 1.487376
-0.70539141 0.07481572 1.4877251
-0.67562455 0.074833333 1.4880751
-0.64560521 0.07502868 1.4884331
-0.61505795 0.074906059 1.4887884
-0.58442694 0.074672982 1.4891407
-0.55428612 0.07490503 1.4895011
-0.5244481 0.074922681 1.4898518
-0.49459621 0.074940331 1.4902027
-0.46472993 0.074957974 1.4905539
-0.43484983 0.074975647 1.4909049
-0.40495557 0.074993283 1.4912562
-0.37504694 0.07501097 1.4916077
-0.34512466 0.07502868 1.4919595
-0.31518802 0.075046353 1.4923112
-0.28523737 0.075064048 1.4926634
-0.25527257 0.075081788 1.4930154
-0.22529356 0.075099491 1.4933677
-0.19530037 0.075117201 1.4937205
-0.16529314 0.075134963 1.4940729
-0.13527165 0.075152703 1.4944258
-0.10523602 0.075170457 1.494779
-0.075186193 0.075188205 1.4951321
-0.045122128 0.075205974 1.4954855
-0.015043871 0.075223759 1.4958389
0.015048608 0.075241566 1.4961925
0.04515532 0.075259313 1.4965458
0.075276263 0.07527715 1.4969004
0.10541147 0.075294964 1.4972545
0.13556094 0.075312778 1.4976088
0.16572465 0.075330593 1.4979634
0.19590268 0.075348459 1.498318
0.22501643 0.07536564 1.4986602
0.25414363 0.075382866 1.4990027
0.28436363 0.07540071 1.4993576
0.31336969 0.073046498 1.4996305
0.34225339 0.067282572 1.4998022
0.36509249 0.062595688 1.4999347
-1.3556955 0.10479715 1.4809614
-1.3346725 0.10406832 1.4811866
-1.3048738 0.1043062 1.4815431
-1.2753707 0.10433056 1.4818902
-1.2452396 0.10460666 1.4822516
-1.2146778 0.1041273 1.4825965
-1.1846687 0.10440575 1.4829569
-1.1551094 0.10443022 1.4833043
-1.125537 0.10445467 1.4836524
-1.0952586 0.10471433 1.484015
-1.0646238 0.10426597 1.4843613
-1.0346184 0.10452993 1.4847214
-1.004989 0.10455449 1.4850698
-0.97534561 0.10457906 1.4854187
-0.94553024 0.10473343 1.4857728
-0.91510397 0.10471285 1.4861293
-0.8845256 0.10444023 1.4864802
-0.85451078 0.10467912 1.4868394
-0.82479686 0.10470364 1.4871892
-0.79506844 0.10472828 1.4875382
-0.7653265 0.10475292 1.4878882
-0.73557049 0.10477761 1.4882379
-0.70564091 0.10493225 1.4885938
-0.67517382 0.10493841 1.4889513
-0.64448351 0.10461293 1.4893022
-0.61427629 0.10487797 1.4896643
-0.58444911 0.10490263 1.4900153
-0.55460799 0.10492742 1.4903666
-0.52475256 0.1049521 1.4907171
-0.49488339 0.10497682 1.4910686
-0.46500006 0.10500158 1.49142
-0.43510249 0.1050263 1.4917716
-0.40519083 0.10505114 1.4921229
-0.37526521 0.10507587 1.4924753
-0.34532535 0.10510064 1.4928274
-0.31537136 0.10512546 1.4931792
-0.2854034 0.10515027 1.4935322
-0.25542113 0.10517509 1.4938844
-0.22542472 0.10519993 1.4942369
-0.19541404 0.10522477 1.4945904
-0.16538942 0.10524964 1.4949434
-0.1353505 0.10527452 1.4952966
-0.10529734 0.10529941 1.4956502
-0.075229995 0.10532429 1.4960037
-0.045148421 0.10534919 1.4963572
-0.015052648 0.10537412 1.4967111
0.015057384 0.105399 1.4970651
0.045181669 0.10542398 1.4974198
0.075320229 0.10544895 1.4977739
0.10547301 0.10547392 1.4981284
0.1356401 0.10549883 1.4984832
0.16582151 0.10552385 1.4988375
0.1951021 0.1054073 1.4991782
0.22384931 0.10528467 1.4995122
0.25265625 0.10053968 1.4997131
0.28017452 0.094844133 1.4998711
-1.3562007 0.13413118 1.4818037
-1.3351325 0.13415359 1.4820516
-1.3053162 0.13439898 1.4824088
-1.2748333 0.13407716 1.4827573
-1.2445427 0.13417961 1.4831157
-1.2149158 0.13428165 1.4834663
-1.1853536 0.13431312 1.4838144
-1.1553882 0.13458441 1.4841738
-1.1247646 0.13414298 1.4845204
-1.0944686 0.13440995 1.4848835
-1.0648502 0.13444152 1.4852324
-1.0352174 0.13447306 1.485581
-1.0055709 0.13450462 1.4859297
-0.97536737 0.1347952 1.4862926
-0.94465899 0.13431105 1.4866389
-0.91442645 0.1346017 1.4870024
-0.88472313 0.13463336 1.4873515
-0.8550061 0.13466497 1.4877011
-0.82527471 0.13469669 1.4880508
-0.7955296 0.13472833 1.4884009
-0.76569051 0.13483091 1.4887542
-0.73530293 0.13497742 1.489115
-0.70455253 0.13457033 1.4894639
-0.67427987 0.13485751 1.4898275
-0.64446336 0.13488925 1.4901789
-0.61463296 0.13492103 1.4905295
-0.58478862 0.13495281 1.4908805
-0.55493033 0.13498458 1.4912318
-0.52505755 0.1350164 1.4915838
-0.49517101 0.13504826 1.4919351
-0.46527037 0.13508007 1.4922875
-0.43535551 0.13511196 1.4926391
-0.40542662 0.13514388 1.4929914
-0.37548354 0.13517575 1.4933431
-0.34552637 0.13520762 1.493696
-0.31555501 0.1352396 1.4940487
-0.28556946 0.1352715 1.4944015
-0.25556996 0.13530342 1.4947546
-0.225556 0.13533539 1.4951074
-0.19552797 0.13536741 1.4954611
-0.16548577 0.13539943 1.4958144
-0.1354294 0.13543141 1.4961685
-0.10535876 0.13546343 1.4965216
-0.075273886 0.13549545 1.4968764
-0.045174778 0.13552755 1.4972301
-0.01506143 0.13555962 1.4975847
0.015066178 0.1355917 1.4979386
0.045208052 0.13562383 1.4982935
0.075364172 0.13565594 1.4986485
0.10553461 0.13568804 1.4990036
0.13571942 0.13572022 1.4993588
0.16469854 0.13337696 1.4996306
0.19294529 0.12767108 1.4997972
0.21504636 0.1231475 1.4999257
-1.3569841 0.16403244 1.4826596
-1.335216 0.16429545 1.4829228
-1.3046598 0.16386135 1.4832691
-1.2747351 0.16413964 1.4836283
-1.2451837 0.16417809 1.4839758
-1.2154614 0.16434655 1.4843302
-1.1850559 0.16430344 1.4846852
-1.154567 0.16411871 1.4850378
-1.1247241 0.16433498 1.4853944
-1.0951025 0.16437358 1.4857432
-1.0654665 0.16441217 1.4860924
-1.0354264 0.16469121 1.4864526
-1.0047996 0.16432315 1.4868016
-0.97443515 0.16446002 1.4871618
-0.94466376 0.16456959 1.4875143
-0.91495657 0.16460821 1.4878637
-0.88523638 0.16464697 1.4882137
-0.85550207 0.1646857 1.4885641
-0.82567376 0.16479537 1.488917
-0.79529756 0.16494919 1.4892786
-0.76455772 0.16454911 1.489627
-0.73429567 0.16484357 1.4899911
-0.70449066 0.16488236 1.490342
-0.67467111 0.16492119 1.4906936
-0.64483774 0.16496009 1.4910443
-0.61499017 0.16499895 1.4913956
-0.58512849 0.16503786 1.4917474
-0.55525285 0.16507678 1.4920989
-0.52536291 0.16511573 1.492451
-0.49545875 0.16515465 1.492803
-0.46554103 0.16519363 1.4931554
-0.43560889 0.16523255 1.4935082
-0.40566254 0.16527165 1.49386
-0.37570211 0.16531065 1.494213
-0.34572753 0.16534966 1.4945658
-0.3157388 0.1653887 1.4949192
-0.28573602 0.16542783 1.4952724
-0.25571883 0.1654669 1.4956254
-0.22568753 0.16550605 1.4959794
-0.19564204 0.16554521 1.4963328
-0.1655823 0.16558433 1.4966873
-0.13550836 0.16562352 1.4970409
-0.10542025 0.16566263 1.4973948
-0.075317793 0.16570191 1.4977497
-0.045201141 0.16574112 1.4981039
-0.015070223 0.16578038 1.4984587
0.015074975 0.16581967 1.4988142
0.04523446 0.16585891 1.4991685
0.075044438 0.1654768 1.4995072
0.10397682 0.16087352 1.4997141
0.1314794 0.15518428 1.499872
-1.356714 0.19396999 1.4835297
-1.3345673 0.1940041 1.48379
-1.3050269 0.1940496 1.4841385
-1.2754723 0.19409512 1.4844866
-1.2452887 0.19439353 1.4848492
-1.2146727 0.19393432 1.4851952
-1.1846108 0.19423509 1.4855565
-1.1550003 0.19428068 1.4859056
-1.1253753 0.1943263 1.4862545
-1.0954235 0.19458681 1.4866139
-1.0649505 0.19438238 1.4869654
-1.0345336 0.19428836 1.4873194
-1.0046154 0.19451238 1.4876775
-0.97492063 0.19455808 1.488027
-0.94521099 0.19460385 1.4883775
-0.91548735 0.19464959 1.4887272
-0.88559097 0.19482586 1.4890835
-0.85515732 0.1948536 1.489441
-0.82449919 0.19454928 1.4897921
-0.79432571 0.19483624 1.4901545
-0.76453102 0.19488212 1.4905053
-0.73472273 0.19492806 1.4908565
-0.70490009 0.19497395 1.4912081
-0.67506349 0.19501996 1.4915595
-0.64521259 0.19506587 1.4919105
-0.61534774 0.19511186 1.4922628
-0.58546901 0.19515793 1.4926151
-0.55557561 0.19520399 1.4929668
-0.5256688 0.19524994 1.4933196
-0.49574739 0.19529609 1.4936718
-0.46581203 0.1953422 1.4940243
-0.43586245 0.19538835 1.4943773
-0.40589881 0.1954345 1.4947306
-0.37592101 0.19548067 1.4950831
-0.34592897 0.19552687 1.495437
-0.31592298 0.19557311 1.4957905
-0.28590247 0.19561931 1.4961441
-0.25586793 0.19566557 1.496498
-0.22581914 0.19571188 1.4968512
-0.19575609 0.19575822 1.4972055
-0.16567892 0.19580452 1.4975597
-0.13558741 0.19585082 1.4979146
-0.10548178 0.19589724 1.4982693
-0.075633004 0.19549944 1.4986079
-0.045226596 0.1949089 1.4989476
-0.015078707 0.19495511 1.4993026
0.014149966 0.1937732 1.4996117
0.042926583 0.1882835 1.4997903
0.066345818 0.18348989 1.4999268
-1.3575667 0.22410296 1.4843913
-1.3353392 0.22398034 1.4846486
-1.3053176 0.22428824 1.4850098
-1.2747127 0.22383578 1.4853556
-1.2445115 0.22414161 1.4857193
-1.2149112 0.22419432 1.4860681
-1.1852973 0.2242469 1.4864171
-1.1554337 0.22447793 1.4867744
-1.1250422 0.22439112 1.4871284
-1.0945659 0.22419383 1.4874806
-1.0645819 0.22446166 1.4878398
-1.0348977 0.22451438 1.4881901
-1.0051986 0.22456731 1.4885398
-0.97548598 0.22461998 1.4888902
-0.94552243 0.22485162 1.4892485
-0.91510463 0.22479135 1.4896038
-0.88453072 0.22454105 1.4899554
-0.85436869 0.22483546 1.4903175
-0.82458466 0.22488847 1.4906689
-0.79478776 0.2249413 1.4910202
-0.76497543 0.22499439 1.4913716
-0.7351498 0.2250475 1.4917227
-0.70530963 0.22510052 1.4920747
-0.67545599 0.22515368 1.4924266
-0.6455878 0.22520655 1.4927785
-0.61570585 0.22525983 1.4931312
-0.58580953 0.2253128 1.4934837
-0.5558185 0.22543749 1.493839
-0.52558386 0.22556652 1.4941977
-0.49519268 0.22552298 1.4945532
-0.46486166 0.22550635 1.4949083
-0.43466508 0.2255545 1.4952637
-0.40453118 0.22559713 1.4956193
-0.3744562 0.2256888 1.4959747
-0.34444606 0.22574198 1.4963281
-0.31464583 0.22587921 1.4966822
-0.28507382 0.22583127 1.4970276
-0.25565052 0.2256456 1.497368
-0.22622259 0.22535452 1.4977047
-0.1958663 0.22492521 1.4980487
-0.1657722 0.22497863 1.4984031
-0.13566376 0.22503191 1.4987583
-0.10554115 0.22508529 1.499113
-0.075202018 0.22458339 1.4994544
-0.046667855 0.22047265 1.4996704
-0.018148459 0.21458609 1.4998348
0.0026939318 0.21066482 1.4999661
-1.3579021 0.25450966 1.4852669
-1.3349088 0.25390917 1.48552
-1.3045816 0.25392452 1.4858762
-1.2748355 0.25411442 1.4862301
-1.2452323 0.25417417 1.4865798
-1.2154579 0.25436437 1.4869347
-1.1851472 0.25440642 1.4872915
-1.1546108 0.25411651 1.4876416
-1.1245617 0.25441751 1.4880025
-1.0948875 0.25447732 1.488353
-1.0651991 0.25453722 1.488703
-1.0354978 0.25459713 1.4890535
-1.0054674 0.25487277 1.4894137
-0.97499031 0.25471914 1.489767
-0.94449806 0.25456548 1.4901201
-0.9144246 0.25484127 1.4904815
-0.88465166 0.25490129 1.4908324
-0.85486501 0.25496134 1.4911835
-0.82506406 0.25502142 1.4915351
-0.79524916 0.25508156 1.4918869
-0.76542032 0.25514176 1.4922388
-0.73557693 0.25520194 1.4925907
-0.70572001 0.25526214 1.4929423
-0.67576855 0.25539371 1.4932984
-0.64549601 0.25555614 1.4936577
-0.61499596 0.25544524 1.4940132
-0.5845542 0.25539267 1.4943686
-0.55424529 0.25543684 1.4947256
-0.52414185 0.25562829 1.4950843
-0.49418497 0.25568873 1.4954376
-0.46421361 0.25574911 1.4957911
-0.43422836 0.25580958 1.4961443
-0.40422884 0.25587001 1.4964985
-0.37439704 0.25571173 1.4968441
-0.34418008 0.25491008 1.4971755
-0.31413859 0.2549704 1.4975294
-0.28408283 0.25503075 1.497884
-0.25416878 0.25522301 1.4982412
-0.2247631 0.25448057 1.4985648
-0.19583201 0.2539922 1.49889
-0.16586554 0.25418597 1.4992471
-0.13643558 0.25326902 1.4995657
-0.10743591 0.24772367 1.4997462
-0.08192873 0.24273989 1.4999011
-1.3580143 0.28398877 1.4861187
-1.3347723 0.2840412 1.4863931
-1.3051802 0.28410789 1.4867425
-1.2754954 0.28424582 1.4870946
-1.2451903 0.28441179 1.4874549
-1.2145919 0.28407156 1.4878045
-1.1845536 0.2843799 1.4881657
-1.1548908 0.28444684 1.4885159
-1.125213 0.2845138 1.4888662
-1.0955218 0.28458077 1.4892164
-1.0654267 0.28488955 1.4895786
-1.0348885 0.28465357 1.4899304
-1.0044785 0.28460756 1.4902856
-0.97449374 0.28485364 1.4906447
-0.94473171 0.28492078 1.4909961
-0.91495585 0.28498787 1.4913473
-0.88516593 0.28505507 1.4916991
-0.855362 0.28512228 1.4920505
-0.82554376 0.28518957 1.4924026
-0.7957117 0.28525677 1.4927546
-0.76562732 0.28550363 1.4931149
-0.73523849 0.28547958 1.4934704
-0.70476335 0.28537562 1.4938257
-0.67434609 0.2853516 1.4941813
-0.64420348 0.28559855 1.4945425
-0.61428547 0.28566599 1.4948955
-0.58435357 0.28573343 1.4952489
-0.5544076 0.28580102 1.4956019
-0.52444732 0.28586853 1.4959558
-0.49472189 0.28556767 1.4962956
-0.46447474 0.28492242 1.4966322
-0.4344728 0.28498983 1.4969865
-0.40445638 0.28505734 1.4973403
-0.37423268 0.28487962 1.4976901
-0.34437382 0.28411028 1.4980179
-0.31431541 0.28417769 1.4983726
-0.28424281 0.28424489 1.4987283
-0.25415605 0.28431225 1.499083
-0.22412629 0.28430724 1.4994351
-0.19624332 0.28096992 1.4996654
-0.16882363 0.27537027 1.4998254
-0.14726694 0.27118671 1.4999574
-1.3588012 0.31406403 1.4869801
-1.3354678 0.31419316 1.4872575
-1.3052483 0.31438303 1.4876175
-1.274662 0.31401825 1.4879659
-1.2445586 0.31434891 1.4883287
-1.2149069 0.31442288 1.4886788
-1.1852407 0.31449687 1.4890294
-1.1555601 0.3145709 1.4893799
-1.1254005 0.31490201 1.4897432
-1.0948002 0.31459445 1.4900932
-1.0644714 0.31466755 1.4904517
-1.0345761 0.31487268 1.4908081
-1.004825 0.31494689 1.4911591
-0.97506022 0.31502107 1.4915109
-0.94528103 0.31509531 1.4918625
-0.91548789 0.31516957 1.4922141
-0.88568085 0.31524396 1.4925665
-0.85554367 0.31553504 1.4929283
-0.82510805 0.31543821 1.493283
-0.79458565 0.31528318 1.4936366
-0.76425791 0.31547555 1.4939983
-0.73429894 0.31562147 1.4943538
-0.70440644 0.31569606 1.4947066
-0.67449951 0.31577063 1.4950602
-0.64457864 0.31584528 1.4954135
-0.61482388 0.31570095 1.4957584
-0.58468223 0.31491297 1.4960889
-0.55471915 0.31498757 1.496443
-0.52474219 0.31506205 1.4967968
-0.49448946 0.31473219 1.4971424
-0.4647364 0.31412899 1.4974741
-0.43471697 0.31420335 1.4978286
-0.40468386 0.31427771 1.4981833
-0.37463659 0.31435212 1.498538
-0.34457487 0.31442663 1.4988928
-0.31449905 0.31450111 1.4992479
-0.28510067 0.31359699 1.4995667
-0.25611883 0.30805895 1.4997468
-0.23062703 0.30308139 1.4999019
-1.3589658 0.34460637 1.4878616
-1.3346694 0.3439866 1.4881287
-1.3045777 0.3443245 1.4884918
-1.2749364 0.34440547 1.4888419
-1.2452811 0.34448671 1.4891921
-1.2155325 0.34463903 1.4895463
-1.1853131 0.34484255 1.4899061
-1.1546526 0.34447411 1.4902558
-1.1243979 0.34481686 1.4906205
-1.0946716 0.34489807 1.4909719
-1.0649316 0.34497947 1.491323
-1.0351777 0.34506086 1.4916749
-1.0054094 0.34514216 1.4920261
-0.97562718 0.34522361 1.4923784
-0.94559354 0.34548467 1.4927382
-0.91517955 0.34546936 1.4930949
-0.88460785 0.34528425 1.4934485
-0.8543058 0.3454839 1.4938096
-0.82437211 0.34563687 1.4941652
-0.79450452 0.34571841 1.4945182
-0.76462293 0.34580028 1.4948715
-0.73472637 0.34588191 1.4952245
-0.70499605 0.34512702 1.4955516
-0.67487878 0.34496343 1.4959
-0.64494097 0.34504494 1.4962538
-0.61479533 0.34488142 1.496603
-0.58501089 0.34412587 1.4969305
-0.5550313 0.34420735 1.4972848
-0.52503753 0.34428877 1.4976395
-0.49502945 0.34437028 1.4979935
-0.46500719 0.34445176 1.4983481
-0.43497095 0.34453332 1.4987029
-0.40492031 0.34461492 1.4990585
-0.37485543 0.34469655 1.499414
-0.34613168 0.34143293 1.4996562
-0.31751436 0.33570877 1.4998264
-0.29597083 0.33153045 1.4999584
-1.3593193 0.37432232 1.4887172
-1.3349791 0.37439477 1.4890051
-1.3053346 0.37448275 1.4893559
-1.2754409 0.37475049 1.4897139
-1.245092 0.37472591 1.4900697
-1.214586 0.37451118 1.4904215
-1.1844958 0.37484205 1.4907842
-1.1547804 0.37493029 1.4911352
-1.1250513 0.37501872 1.4914871
-1.0953083 0.37510723 1.4918382
-1.0655506 0.37519556 1.4921899
-1.0355425 0.37546393 1.4925499
-1.0051537 0.37545568 1.4929067
-0.97460741 0.37527785 1.4932599
-0.94433099 0.37548462 1.4936213
-0.91442269 0.37564483 1.493977
-0.8845799 0.37573352 1.4943295
-0.85472333 0.37582219 1.4946824
-0.8250702 0.3756173 1.4950247
-0.79495114 0.37491772 1.4953581
-0.76505238 0.37500626 1.4957113
-0.73513979 0.37509492 1.496065
-0.7050187 0.37432024 1.4963962
-0.67525816 0.37418941 1.4967417
-0.64530373 0.3742781 1.4970951
-0.61533523 0.37436652 1.4974498
-0.58535224 0.37445521 1.4978042
-0.55535561 0.37454385 1.4981588
-0.52534413 0.37463251 1.4985132
-0.49531865 0.37472123 1.4988689
-0.46527898 0.37480992 1.4992238
-0.43587187 0.37407109 1.4995476
-0.40691224 0.36885756 1.4997362
-0.38074383 0.36369398 1.4998941
-1.3601086 0.40450272 1.4895813
-1.3353645 0.40482372 1.4898814
-1.3048842 0.40461615 1.4902328
-1.2745321 0.40459841 1.4905883
-1.2446066 0.40487364 1.4909476
-1.214902 0.40496916 1.4912989
-1.1851841 0.40506461 1.4916503
-1.1554519 0.40516001 1.4920019
-1.1255471 0.40538707 1.4923595
-1.0952547 0.40548787 1.4927183
-1.0647335 0.40531683 1.4930713
-1.0344124 0.40541786 1.4934303
-1.00445 0.40564507 1.4937886
-0.97463274 0.40574089 1.4941411
-0.94480127 0.40583661 1.494494
-0.91521698 0.40533286 1.4948268
-0.88507694 0.40494561 1.4951693
-0.85520363 0.40504149 1.4955225
-0.82508093 0.40481183 1.4958693
-0.7953974 0.40414977 1.4961985
-0.7654826 0.40424535 1.4965523
-0.73555344 0.4043411 1.496906
-0.70560992 0.40443674 1.4972609
-0.67565233 0.40453246 1.4976144
-0.64568019 0.40462825 1.4979689
-0.61569428 0.40472403 1.498324
-0.58569419 0.40481985 1.4986789
-0.55567968 0.40491566 1.4990339
-0.52565104 0.40501174 1.4993891
-0.49689013 0.40212762 1.4996431
-0.46804354 0.3964211 1.4998167
-0.44583893 0.39196116 1.499948
-1.3599817 0.43490905 1.4904625
-1.3345675 0.43467802 1.4907541
-1.3047303 0.43491223 1.4911114
-1.2750375 0.43501434 1.4914623
-1.2453302 0.43511668 1.4918141
-1.2155294 0.43529114 1.492169
-1.185333 0.43551236 1.4925294
-1.154837 0.43534875 1.4928831
-1.1244705 0.43535471 1.4932394
-1.0944554 0.43563765 1.4936005
-1.0646632 0.4357408 1.4939525
-1.0348561 0.43584362 1.4943054
-1.0052497 0.43518904 1.494634
-0.97518021 0.43496609 1.4949799
-0.94533187 0.43506929 1.4953333
-0.91518867 0.43453386 1.4956717
-0.8855741 0.43419102 1.4960098
-0.85568345 0.43429372 1.4963624
-0.82577991 0.43439636 1.4967172
-0.79570156 0.43463132 1.4970767
-0.76554435 0.43465292 1.4974312
-0.73536766 0.43477273 1.497789
-0.70517981 0.4348276 1.4981445
-0.6751287 0.4349139 1.4985002
-0.64513904 0.43501684 1.4988546
-0.61513501 0.43511987 1.4992096
-0.58592713 0.43437132 1.4995314
-0.55738395 0.42939791 1.4997216
-0.5307709 0.42423555 1.4998853
-1.3606293 0.46497235 1.4913249
-1.3351856 0.46506643 1.4916261
-1.3054893 0.46517611 1.4919783
-1.2754657 0.46550292 1.4923396
-1.245067 0.46542585 1.4926946
-1.2145816 0.46526951 1.4930475
-1.1844376 0.46562323 1.4934118
-1.1546699 0.46573269 1.4937637
-1.1248882 0.46584243 1.4941173
-1.0952122 0.46503374 1.4944412
-1.0652605 0.46497911 1.4947914
-1.0354372 0.46508899 1.4951447
-1.0053627 0.46440944 1.495478
-0.97572792 0.46422502 1.4958205
-0.94562525 0.46451527 1.4961817
-0.91529363 0.4645288 1.4965386
-0.88494748 0.46454209 1.4968946
-0.85466003 0.46460411 1.4972517
-0.82436299 0.46460083 1.4976069
-0.79418761 0.46489191 1.4979705
-0.76423645 0.46500209 1.4983248
-0.73427153 0.46511227 1.49868
-0.7042923 0.46522254 1.4990346
-0.67429882 0.46533257 1.4993892
-0.64556283 0.46245867 1.4996442
-0.61673367 0.4567593 1.4998174
-0.59454209 0.4523046 1.499949
-1.3611823 0.495509 1.492202
-1.335125 0.4954426 1.4925056
-1.3046647 0.49529293 1.492859
-1.2744762 0.49552882 1.4932203
-1.2446545 0.49571773 1.4935759
-1.214898 0.49583459 1.4939284
-1.1852448 0.49503192 1.4942533
-1.1553183 0.49498451 1.4946028
-1.1255198 0.49510133 1.4949559
-1.0954765 0.49435189 1.4952868
-1.0654713 0.49439979 1.4956403
-1.0351033 0.49441484 1.4959978
-1.004722 0.49440846 1.496354
-0.97440094 0.49442911 1.4967102
-0.94427973 0.49472693 1.497072
-0.91438252 0.49484402 1.4974264
-0.88447106 0.49496129 1.4977807
-0.85454541 0.49507844 1.4981353
-0.82460529 0.49519581 1.4984903
-0.79465121 0.49531299 1.4988451
-0.76468295 0.49543026 1.4991997
-0.73523211 0.49484372 1.4995291
-0.70627946 0.48994252 1.4997268
-0.6794678 0.48457655 1.499886
-1.3611512 0.52558386 1.4930725
-1.3346164 0.52569449 1.4933872
-1.3048847 0.52581871 1.4937397
-1.2753083 0.52510363 1.4940659
-1.2453535 0.52498227 1.4944143
-1.21558 0.52510631 1.4947672
-1.1854028 0.52447218 1.4951028
-1.1552032 0.52435952 1.495454
-1.1247872 0.52431226 1.4958103
-1.0944299 0.52434528 1.4961667
-1.0643486 0.52465028 1.4965292
-1.0344903 0.52477437 1.4968827
-1.0046179 0.52489859 1.4972373
-0.97473139 0.52502286 1.4975913
-0.94483107 0.5251472 1.4979453
-0.91491616 0.52527136 1.4982998
-0.88498741 0.52539587 1.4986551
-0.85504425 0.52552027 1.4990106
-0.82508701 0.52564484 1.4993653
-0.79629493 0.52321988 1.4996336
-0.76737297 0.5174309 1.4998051
-0.74478453 0.51301295 1.4999424
-1.3619912 0.55496079 1.4939129
-1.3353655 0.55497241 1.4942256
-1.3056171 0.55510372 1.4945786
-1.27526 0.55461258 1.4949205
-1.244989 0.55428517 1.4952666
-1.2145987 0.55424505 1.4956218
-1.1844096 0.55447996 1.495983
-1.1545106 0.55468309 1.4963403
-1.1246778 0.55481422 1.4966941
-1.0948305 0.55494541 1.4970483
-1.0649695 0.55507672 1.4974016
-1.0350941 0.55520821 1.4977566
-1.0052044 0.55533952 1.4981111
-0.97530067 0.55547118 1.4984654
-0.94538301 0.55560261 1.498821
-0.91545057 0.55573422 1.4991759
-0.88588959 0.5550459 1.4995022
-0.85701364 0.55063361 1.4997141
-0.83007032 0.5453155 1.499876
-1.3621424 0.58457977 1.4947679
-1.334903 0.58424598 1.4950783
-1.304538 0.58421302 1.4954334
-1.2744445 0.58456981 1.495797
-1.2446506 0.58470809 1.4961507
-1.2148429 0.58484638 1.4965045
-1.1850208 0.58498466 1.4968591
-1.1551844 0.585123 1.4972126
-1.1253343 0.58526158 1.4975671
-1.0954698 0.5854001 1.4979216
-1.0655911 0.5855388 1.4982759
-1.0356985 0.58567739 1.4986311
-1.0060364 0.58544433 1.4989727
-0.97567827 0.5849964 1.4993154
-0.94668961 0.58344746 1.4996111
-0.91804618 0.57819271 1.4997948
-0.89280725 0.57277602 1.4999347
-1.3624109 0.61459076 1.4956331
-1.3347672 0.61472565 1.4959615
-1.3049847 0.61487103 1.4963151
-1.2751877 0.61501646 1.4966695
-1.2453769 0.6151619 1.4970233
-1.2155519 0.61530733 1.4973775
-1.1856329 0.61552542 1.4977345
-1.1554705 0.61574835 1.4980955
-1.1251502 0.61579782 1.4984528
-1.0950086 0.61487651 1.49878
-1.0647156 0.61489433 1.4991357
-1.0346217 0.61484849 1.4994873
-1.0053279 0.61039448 1.4997028
-0.97761518 0.60432196 1.4998521
-0.95688814 0.60021025 1.4999764
-1.3632053 0.64505136 1.4965054
-1.335546 0.64519304 1.4968343
-1.3055094 0.6455276 1.4971962
-1.2752433 0.64558417 1.4975536
-1.2449625 0.64564067 1.4979098
-1.2149391 0.64525157 1.498251
-1.1844175 0.64474642 1.4985952
-1.1543757 0.6450305 1.4989557
-1.1244904 0.64518332 1.4993109
-1.095351 0.64291358 1.4995872
-1.0664061 0.6373778 1.4997665
-1.0421644 0.63241047 1.4999073
-1.3632295 0.67579675 1.4973946
-1.3345824 0.67555749 1.4977244
-1.30463 0.67495126 1.4980582
-1.2745188 0.67493677 1.4984109
-1.2446729 0.67509651 1.4987658
-1.2145293 0.67477059 1.4991101
-1.1849833 0.67425257 1.4994421
-1.1562775 0.67062306 1.4996742
-1.128086 0.66494155 1.4998401
-1.1066626 0.6605494 1.4999646
-1.3637034 0.70499432 1.4982339
-1.3349472 0.70515519 1.498576
-1.3049085 0.7044521 1.4989082
-1.2752366 0.70439786 1.4992548
-1.2460942 0.70343179 1.4995691
-1.2171756 0.69808537 1.499754
-1.1924193 0.69316679 1.4999022
-1.3644716 0.73446858 1.4990776
-1.3356199 0.73469794 1.4994229
-1.3069849 0.7312274 1.4996591
-1.2787719 0.72573251 1.499831
-1.2570853 0.72132093 1.4999577
-1.3660114 0.75849229 1.4997548
-1.3411889 0.75318414 1.4998925
1.3455232 -0.33126205 1.5000443
1.3672816 -0.33578503 1.5001687
1.2814111 -0.30354115 1.5000939
1.3062632 -0.30816019 1.5002517
1.3352013 -0.31363326 1.5004332
1.3649144 -0.31481275 1.5007476
1.1968775 -0.27120122 1.5000376
1.218558 -0.27543315 1.5001698
1.2465719 -0.28129736 1.5003283
1.2746435 -0.28431925 1.5005711
1.3046832 -0.28465655 1.5009135
1.3351907 -0.28472406 1.5012695
1.3653352 -0.28504366 1.5016147
1.3801478 -0.27516609 1.5020738
1.1320859 -0.24285913 1.5000974
1.1572232 -0.24780594 1.5002491
1.18622 -0.25345147 1.5004265
1.2148831 -0.25431973 1.5007377
1.2445127 -0.25442228 1.5010821
1.2749352 -0.254554 1.5014354
1.3054465 -0.25461447 1.501792
1.3352041 -0.2549043 1.5021327
1.3646326 -0.25450796 1.5024891
1.3806962 -0.25476342 1.5026705
1.0469025 -0.21067363 1.500029
1.0678414 -0.21463227 1.5001603
1.0964249 -0.22038159 1.5003294
1.125502 -0.22415012 1.5005614
1.1552771 -0.22454765 1.5008991
1.1846339 -0.22405365 1.5012575
1.2146664 -0.22437732 1.5016012
1.2451668 -0.22443059 1.5019579
1.2753807 -0.22470726 1.5023044
1.3047976 -0.22430362 1.5026616
1.3345724 -0.22458667 1.5030024
1.3651297 -0.22464 1.5033593
1.3815051 -0.22466862 1.5035506
0.98327214 -0.18350716 1.5000683
1.0069077 -0.18736352 1.5002341
1.0356735 -0.19263577 1.5004193
1.0651778 -0.19405907 1.500724
1.0954758 -0.19423784 1.5010749
1.1249975 -0.19414945 1.5014231
1.154533 -0.19406117 1.5017722
1.1848738 -0.19424006 1.5021234
1.2153772 -0.19428614 1.5024804
1.245286 -0.19460598 1.5028217
1.2747018 -0.19410405 1.5031818
1.3047935 -0.19442132 1.5035259
1.3353542 -0.19446756 1.5038834
1.3652393 -0.19477183 1.5042255
1.3815165 -0.19243081 1.5044838
0.89979202 -0.15194093 1.500002
0.9188323 -0.15544963 1.500124
0.94585121 -0.16066264 1.5002899
0.97482526 -0.16558224 1.5004874
1.0046531 -0.16528812 1.5008461
1.0353281 -0.16500407 1.501215
1.0654449 -0.16519988 1.5015624
1.0946964 -0.16373007 1.5019478
1.124567 -0.1640428 1.5022897
1.1550603 -0.16408177 1.5026462
1.1854185 -0.1642537 1.5029975
1.2149987 -0.16415831 1.5033474
1.2445934 -0.16406292 1.5036975
1.2749938 -0.16423498 1.5040493
1.3053329 -0.16445796 1.5043993
1.3348833 -0.16419557 1.5047535
1.36462 -0.16427764 1.5051004
1.3820324 -0.16437173 1.5053018
0.83455795 -0.12315924 1.5000694
0.85794574 -0.12785472 1.5002077
0.88644475 -0.13393474 1.5003661
0.91456199 -0.13558011 1.5006489
0.9445976 -0.13586523 1.5009933
0.97502154 -0.13589747 1.501349
1.00546 -0.13592969 1.5017058
1.0353049 -0.13623615 1.5020466
1.0645846 -0.13564499 1.5024078
1.0947069 -0.13494773 1.5027812
1.1252023 -0.13497974 1.5031378
1.1553893 -0.13522939 1.5034848
1.1847991 -0.1348182 1.503842
1.2145947 -0.13507374 1.5041842
1.2453052 -0.13417222 1.5045708
1.2752862 -0.13433139 1.5049181
1.3047504 -0.13381432 1.5052792
1.3347355 -0.13412096 1.5056223
1.3653454 -0.13415289 1.5059804
1.3828433 -0.13417111 1.5061853
0.76944184 -0.094859973 1.5001236
0.79708523 -0.10044338 1.5002868
0.82599533 -0.10528915 1.500486
0.85507804 -0.1057242 1.5008144
0.88445795 -0.10555132 1.5011641
0.91472316 -0.1057094 1.5015153
0.94515026 -0.10573453 1.5018721
0.97559237 -0.10575958 1.5022274
1.0051233 -0.10592441 1.5025696
1.0344907 -0.10567493 1.5029215
1.0648266 -0.10583311 1.5032731
1.0953249 -0.10585829 1.50363
1.1253073 -0.10616256 1.5039734
1.1547158 -0.10562771 1.5043341
1.1847259 -0.10593198 1.5046768
1.2152816 -0.10595723 1.5050346
1.2450736 -0.10531965 1.5054032
1.2746853 -0.10468287 1.5057693
1.3048768 -0.10495146 1.5061154
1.33541 -0.10504802 1.506471
1.3650244 -0.10500058 1.5068201
1.3825989 -0.10467377 1.5070359
0.68449551 -0.062600903 1.5000606
0.70722121 -0.067072183 1.5001978
0.73635131 -0.073018841 1.5003679
0.76541758 -0.075462177 1.5006377
0.79549426 -0.075704269 1.5009841
0.8247714 -0.075265557 1.50134
0.85441124 -0.075514622 1.5016801
0.88482749 -0.075532556 1.5020372
0.91525853 -0.075550489 1.5023936
0.94548059 -0.075752661 1.5027426
0.97483182 -0.075393267 1.5030978
1.0044603 -0.075603053 1.5034394
1.0349483 -0.075621009 1.5037966
1.0654504 -0.075638987 1.5041536
1.0952003 -0.075888619 1.504496
1.1246172 -0.075449005 1.5048534
1.154862 -0.075691678 1.5052018
1.1854211 -0.075709686 1.5055598
1.2151456 -0.075919911 1.5059026
1.2446227 -0.075559847 1.506259
1.2749991 -0.075762488 1.5066091
1.3053139 -0.076005585 1.5069585
1.3348292 -0.075565182 1.5073178
1.3647027 -0.07581532 1.5076607
1.3833154 -0.075826287 1.507879
0.6192227 -0.034181654 1.5001167
0.64618242 -0.03960377 1.5002766
0.67523265 -0.044709891 1.5004698
0.70512444 -0.045281716 1.5008036
0.73548782 -0.045292467 1.50116
0.76541573 -0.045575369 1.5015029
0.79469055 -0.045038197 1.5018617
0.82449144 -0.045323949 1.5022035
0.85491121 -0.045334693 1.5025598
0.88534588 -0.045345481 1.5029173
0.91541976 -0.045610383 1.5032622
0.94476712 -0.045106817 1.5036211
0.97455829 -0.04537702 1.5039631
1.0050492 -0.045387819 1.5043204
1.0354806 -0.045470599 1.5046748
1.0649849 -0.045409013 1.5050231
1.0945021 -0.04534746 1.5053716
1.1249766 -0.045430247 1.5057268
1.15539 -0.045574758 1.5060794
1.1849432 -0.04538716 1.5064316
1.2145976 -0.045389879 1.5067794
1.2451283 -0.045472749 1.5071356
1.2752925 -0.045756817 1.5074811
1.3048064 -0.04521757 1.5078434
1.3348426 -0.045504481 1.5081873
1.3652788 -0.045700442 1.5085387
1.3838574 -0.044727612 1.508785
0.53578192 -0.002253222 1.5000612
0.55721605 -0.0065104342 1.5001894
0.58552051 -0.012297591 1.5003539
0.61448026 -0.015091018 1.5006138
0.64481795 -0.015094602 1.5009694
0.6751703 -0.01509818 1.5013255
0.7055369 -0.015101754 1.5016819
0.73531359 -0.015380722 1.5020227
0.76459181 -0.014836181 1.5023825
0.7945509 -0.01511226 1.5027262
0.82497436 -0.015115846 1.5030832
0.85541207 -0.015119443 1.50344
0.88533562 -0.015403 1.5037831
0.91468358 -0.014846397 1.5041436
0.94463468 -0.01512996 1.504487
0.97512943 -0.015133568 1.5048448
1.0054145 -0.015322016 1.5051949
1.0348282 -0.014947737 1.5055509
1.0645189 -0.015144107 1.5058938
1.0950702 -0.015147717 1.5062517
1.1253364 -0.015376753 1.5066004
1.1548016 -0.014922032 1.5069592
1.1846274 -0.015158284 1.5073025
1.2152363 -0.015161892 1.5076613
1.245169 -0.015426065 1.5080053
1.2746879 -0.014913727 1.5083665
1.3049605 -0.015172482 1.5087143
1.3352478 -0.01543144 1.5090623
1.3648086 -0.014918687 1.5094237
1.3838464 -0.015181785 1.5096399
0.47050348 0.026168307 1.5001175
0.49747792 0.020659713 1.5002753
