# .PCD v0.7 - Point Cloud Data file format
VERSION 0.7
FIELDS x y z
SIZE 4 4 4
TYPE F F F
COUNT 1 1 1
WIDTH 1457
HEIGHT 1
VIEWPOINT 0 0 0 1 0 0 0
POINTS 1457
DATA ascii
0.3153913 -0.55408609 1.5916959
0.34463534 -0.56211859 1.5916666
0.36558741 -0.56698501 1.5910001
0.68714225 -0.54554796 1.5910001
0.70452821 -0.555682 1.5956668
0.73218822 -0.55494237 1.6086251
0.17171645 -0.52063048 1.6182499
0.19481537 -0.52540654 1.6130381
0.22585595 -0.52509993 1.6108433
0.25554618 -0.52534926 1.6066194
0.2856411 -0.52512872 1.5993199
0.31004518 -0.52645421 1.5933814
0.64576024 -0.51547343 1.5909998
0.67886043 -0.52063864 1.5927142
0.70379847 -0.52446634 1.5945106
0.73291463 -0.52407581 1.603205
0.76081038 -0.51969182 1.6157058
0.13595743 -0.49007019 1.6165793
0.16645311 -0.49365965 1.6145862
0.19581346 -0.49419868 1.6044899
0.22491838 -0.49433109 1.6069998
0.25481737 -0.49429876 1.6028489
0.28457132 -0.49516442 1.5946528
0.31448436 -0.49528643 1.5945094
0.33428261 -0.48600081 1.5910001
0.64949018 -0.49926451 1.5912856
0.67468613 -0.49577871 1.5967025
0.70672244 -0.49596518 1.6048182
0.73460245 -0.49510384 1.6037267
0.76396286 -0.49284607 1.606814
0.78897202 -0.49120119 1.6145
0.13899803 -0.46617675 1.6179414
0.16581686 -0.4644362 1.6165277
0.19508515 -0.46474239 1.6064614
0.22451767 -0.46462902 1.6041429
0.25556782 -0.46507227 1.6019331
0.2836622 -0.4641352 1.592388
0.3133319 -0.4672716 1.5925325
0.33428261 -0.47579274 1.5910001
0.68347943 -0.47378626 1.5934002
0.70659816 -0.46541515 1.5985556
0.73530269 -0.46597013 1.6094544
0.76439637 -0.46671274 1.6096183
0.78925836 -0.4693968 1.6135001
0.14230391 -0.44637462 1.6190002
0.16965529 -0.44157854 1.6171536
0.19495641 -0.43413886 1.6067142
0.22437054 -0.43473408 1.6058151
0.2545886 -0.43616679 1.6028489
0.28358325 -0.43902975 1.594579
0.30229729 -0.44652954 1.5910001
0.70717955 -0.43438539 1.6002942
0.72583848 -0.43847296 1.6153637
0.198981 -0.40703201 1.6123024
0.22554955 -0.40343443 1.6039056
0.24987184 -0.4090547 1.5936249
0.68816304 -0.41386366 1.5910001
0.70483273 -0.40528685 1.5964857
0.73388344 -0.40207836 1.6103939
0.76066369 -0.39756319 1.6159999
0.78863835 -0.3936522 1.6170001
0.14349107 -0.36089835 1.6190001
0.16820042 -0.36585405 1.6145002
0.19745249 -0.37474912 1.6118003
0.22578309 -0.37526736 1.6050378
0.24982528 -0.37270001 1.5938573
0.70685357 -0.37492833 1.5976343
0.73632151 -0.37600389 1.6134616
0.76414561 -0.37630376 1.6147819
0.79204303 -0.376573 1.6163688
0.1405099 -0.34285888 1.6182001
0.16572651 -0.34378788 1.6092578
0.19542286 -0.34388545 1.6049998
0.2247947 -0.34567124 1.6061834
0.25497699 -0.34540349 1.599933
0.28495735 -0.34110296 1.595683
0.30741414 -0.33642256 1.5945295
0.70855474 -0.34720859 1.5942726
0.73485905 -0.34496111 1.6077441
0.76452303 -0.34492609 1.611475
0.79271084 -0.34262416 1.6148922
0.81246161 -0.33596775 1.6190001
0.14441444 -0.30826712 1.6190002
0.16590472 -0.31291491 1.6179475
0.19446027 -0.31469616 1.6111429
0.22430821 -0.31614503 1.6026735
0.25494924 -0.31589523 1.601428
0.2846885 -0.31523165 1.5967503
0.30956796 -0.31809965 1.5940346
0.70913237 -0.31269425 1.5956665
0.73551816 -0.31518236 1.6100224
0.7645005 -0.31399366 1.6098965
0.79470891 -0.31486994 1.614077
0.14764617 -0.29233924 1.6190001
0.16602941 -0.28535444 1.6134728
0.1965068 -0.28473762 1.6076274
0.22432919 -0.2848148 1.5933453
0.25569588 -0.28563797 1.5932044
0.27800074 -0.2855216 1.5917405
0.70961511 -0.28528804 1.5967933
0.73467439 -0.28461647 1.6083952
0.76320648 -0.2849381 1.6101373
0.78885722 -0.28551504 1.6166
0.14626114 -0.24524814 1.6190001
0.16635846 -0.2558538 1.6140372
0.19606154 -0.25516883 1.6072448
0.22576655 -0.25455433 1.5950001
0.25500563 -0.25563556 1.5927362
0.27896419 -0.2586382 1.5929259
0.68510062 -0.24747181 1.591
0.70480675 -0.2542209 1.596091
0.73504692 -0.25476488 1.6047496
0.7655443 -0.25603387 1.6127678
0.79162735 -0.25449076 1.6175263
0.14239152 -0.22264664 1.6183332
0.16533616 -0.22505616 1.6116349
0.19472016 -0.22474256 1.5963063
0.22516516 -0.22424757 1.5928191
0.25543997 -0.22404687 1.5932506
0.27167302 -0.2137851 1.5910001
0.68510067 -0.23522207 1.5910001
0.70845026 -0.22749254 1.5930001
0.73420125 -0.22497128 1.5978694
0.76535898 -0.22628818 1.607909
0.79415923 -0.22494499 1.6142824
0.81847578 -0.21663015 1.6159999
0.11482092 -0.19552548 1.6190002
0.13227232 -0.20175812 1.6189998
0.16695109 -0.2025952 1.6157691
0.19693266 -0.19649902 1.6085384
0.22493364 -0.1947147 1.6007627
0.25366083 -0.19702272 1.5941491
0.27269381 -0.20357698 1.5910001
0.68630427 -0.18611492 1.5930001
0.70057821 -0.18715121 1.5927143
0.73835802 -0.19684574 1.5938234
0.76524431 -0.19560339 1.6012607
0.7941035 -0.19587187 1.6092858
0.82003856 -0.19660385 1.6137693
0.17188424 -0.15452851 1.6190001
0.19784883 -0.16310388 1.6132326
0.22509135 -0.16382009 1.6021539
0.25326774 -0.16463195 1.5947199
0.27439517 -0.15321709 1.5910001
0.68242854 -0.16902936 1.5924999
0.70433611 -0.16925447 1.595
0.73504031 -0.16682696 1.5918512
0.76401055 -0.16568287 1.6026189
0.78801125 -0.16739671 1.6162499
0.088089794 -0.13029045 1.6190001
0.10502293 -0.13679118 1.6189997
0.13867588 -0.13343707 1.6180345
0.16546389 -0.13583635 1.6106431
0.19533026 -0.13502936 1.6012039
0.22502401 -0.13458711 1.5951459
0.25597593 -0.13444938 1.5933338
0.28256673 -0.13265978 1.5926
0.74031359 -0.13382761 1.5939999
0.76543164 -0.1355512 1.6074572
0.78599966 -0.13443248 1.6173528
0.14114814 -0.10702246 1.6168065
0.16533594 -0.10471144 1.6092497
0.19543186 -0.10530889 1.6058676
0.22597174 -0.10617328 1.5999997
0.25593132 -0.10582332 1.594674
0.28287011 -0.10467556 1.5931396
0.31637371 -0.097627781 1.5909998
0.33292153 -0.10149609 1.5910001
0.71674573 -0.10353772 1.5910001
0.73724008 -0.1066331 1.593111
0.76566297 -0.10546458 1.6046997
0.79051477 -0.10468763 1.6157745
0.14668229 -0.076481245 1.6185558
0.16552667 -0.074000709 1.6164079
0.19577339 -0.074603587 1.606185
0.22537705 -0.075184278 1.5958128
0.25550914 -0.075463705 1.5920377
0.28343874 -0.076254219 1.5924405
0.30712295 -0.080523103 1.5909997
0.70807093 -0.071744338 1.5920812
0.73411834 -0.074062876 1.5922315
0.76419097 -0.07439024 1.5986077
0.79446137 -0.073675737 1.6071903
0.81796175 -0.071639135 1.6146191
0.14222685 -0.040951341 1.6187999
0.16566589 -0.044940442 1.6126429
0.195765 -0.044712938 1.604714
0.22609934 -0.044601403 1.6009282
0.25544006 -0.044349406 1.5916535
0.28397995 -0.04433737 1.591327
0.30207047 -0.04932142 1.5910001
0.70613635 -0.052970383 1.592263
0.73649251 -0.04627018 1.5944002
0.76640093 -0.045183644 1.6025651
0.79344875 -0.044120993 1.6035333
0.82255876 -0.044054992 1.6116153
0.84154731 -0.040955883 1.6190001
0.11856052 -0.0077151055 1.6190001
0.13577747 -0.015464173 1.6164789
0.1656075 -0.015956745 1.6120003
0.19595608 -0.015894424 1.6062654
0.2258217 -0.016069174 1.600818
0.25558257 -0.015530985 1.5946001
0.2787005 -0.017809246 1.5928571
0.7147041 -0.0055400571 1.5910001
0.73840553 -0.012964017 1.5945001
0.76520461 -0.015764706 1.6019764
0.79427099 -0.016562577 1.608511
0.8187387 -0.018436991 1.6157272
0.11693987 0.017532615 1.6186924
0.13455446 0.01505933 1.6116428
0.16548015 0.015054789 1.6105626
0.19629622 0.015052547 1.6091429
0.22429323 0.014994057 1.6026424
0.25267231 0.013856148 1.5951384
0.27743757 0.0077905068 1.5909998
0.71474296 0.010662157 1.5925999
0.73569262 0.01524065 1.597692
0.76489878 0.014668434 1.5999651
0.79485476 0.015423975 1.6069107
0.81866288 0.017177017 1.6157409
0.11700234 0.040587895 1.6190002
0.13476215 0.042376742 1.6141115
0.16663821 0.043599721 1.614289
0.19636677 0.046605591 1.6150002
0.22538002 0.046064612 1.6104285
0.24988768 0.046236657 1.5987
0.73620176 0.046468608 1.5939524
0.76549602 0.045507323 1.5964341
0.79466838 0.046029691 1.6018419
0.81999642 0.045187015 1.61484
0.086704761 0.079541922 1.6190001
0.096826151 0.080181174 1.6190001
0.17212874 0.080591589 1.6169999
0.19499217 0.074878655 1.6132544
0.22533056 0.075145103 1.60551
0.25001803 0.073098846 1.5955266
0.7095834 0.079151809 1.5949999
0.73464054 0.074766688 1.5957549
0.76612097 0.07304275 1.5975118
0.79566884 0.074785911 1.6060475
0.82229048 0.076436929 1.6156454
0.085247755 0.09400899 1.6176668
0.096954003 0.093669258 1.6190001
0.1689676 0.10336429 1.6146445
0.19635096 0.10429713 1.6062937
0.22257723 0.10291611 1.5962797
0.24472365 0.093682572 1.5910001
0.2941308 0.11899864 1.5910001
0.30893254 0.11695702 1.5910001
0.68619275 0.10870627 1.5924544
0.70588565 0.10432078 1.6040732
0.73724419 0.10438863 1.6056461
0.76555812 0.10684755 1.5971054
0.79588497 0.1042086 1.6113158
0.8240419 0.10459212 1.6167502
0.84214103 0.10565968 1.6190002
0.10484867 0.14186838 1.6190002
0.1702105 0.13486195 1.6169355
0.19356607 0.13510087 1.6071291
0.22323449 0.13695699 1.595
0.254464 0.13660122 1.5942804
0.28403246 0.13561727 1.591091
0.30852106 0.13040331 1.5915215
0.68410641 0.1361492 1.5921764
0.70576078 0.13495235 1.5982165
0.73448235 0.13331918 1.599643
0.76492321 0.13594316 1.6053414
0.79451364 0.13576069 1.6149997
0.82015866 0.13273965 1.6175555
0.10471018 0.1515636 1.6190001
0.16707352 0.1650033 1.613593
0.19558208 0.16518486 1.6033263
0.22479659 0.16525576 1.5994613
0.25134733 0.16072646 1.5944595
0.27167302 0.15166453 1.5910001
0.68816304 0.15166453 1.5910001
0.70584011 0.16380765 1.5912665
0.73655063 0.1645143 1.591718
0.76616436 0.1644149 1.5986365
0.79515624 0.16514 1.6056972
0.81894696 0.16460255 1.6157999
0.16682099 0.19171391 1.6158891
0.19553116 0.19566137 1.6131134
0.22608131 0.19403017 1.6006141
0.24746202 0.20219824 1.5928946
0.29617241 0.20882982 1.5910001
0.71145868 0.19277491 1.5933448
0.73560113 0.19398759 1.6004691
0.76537192 0.19404869 1.6036531
0.79476315 0.19575563 1.6083951
0.81914979 0.19669513 1.6161201
0.16924679 0.22831205 1.617345
0.19544004 0.22455008 1.6134564
0.22514665 0.22557491 1.6013727
0.2494588 0.22166489 1.593074
0.29383916 0.21932958 1.5910002
0.31168878 0.22380175 1.5909997
0.33292153 0.22924601 1.5910001
0.71674573 0.21495467 1.5910001
0.73634785 0.2239137 1.5968096
0.76579529 0.22449006 1.6042594
0.7952919 0.22525644 1.606357
0.82411379 0.22559123 1.6096123
0.84696794 0.2293213 1.615923
0.11232785 0.25613356 1.6190002
0.16852444 0.25215536 1.6154654
0.19564669 0.25526869 1.6099819
0.22517562 0.25548181 1.604333
0.25006932 0.25751489 1.5969428
0.77490908 0.24828276 1.592
0.79488021 0.25420055 1.597769
0.8251676 0.2543118 1.6087896
0.84678441 0.25124124 1.6149999
0.13929668 0.29375339 1.6160527
0.16726808 0.2882064 1.615182
0.19449924 0.28440261 1.6086729
0.22531311 0.28605053 1.6024177
0.25154325 0.28350514 1.59725
0.77304947 0.28613588 1.595421
0.79424882 0.28528345 1.6103599
0.82105398 0.27198249 1.6175002
0.11636682 0.32063216 1.6174002
0.13439558 0.31457999 1.6097757
0.16495998 0.31375781 1.6055714
0.19559127 0.31332207 1.603326
0.22276483 0.31562218 1.5957847
0.25329846 0.32724369 1.5910001
0.34517127 0.32724369 1.5910001
0.76949865 0.3162508 1.5967647
0.79640383 0.31598556 1.6105555
0.8241269 0.32155693 1.6141113
0.8456986 0.32442352 1.6176667
0.11564568 0.33535984 1.6170001
0.13759804 0.34125948 1.6163336
0.16552207 0.34378228 1.6110712
0.19689667 0.34434569 1.6106867
0.22531989 0.34531832 1.6011888
0.25497213 0.34544924 1.5935664
0.28149831 0.34982911 1.5909997
0.31724721 0.34818664 1.5909997
0.34195414 0.34134942 1.5909997
0.74202985 0.34734237 1.5930949
0.76578021 0.3456327 1.598489
0.79576248 0.34480274 1.6062499
0.82447815 0.34378675 1.6114999
0.84569854 0.34380373 1.6176667
0.14406286 0.36836234 1.6176666
0.16605361 0.37379178 1.6109335
0.19600487 0.37407467 1.6080003
0.22530562 0.37623277 1.6022589
0.25304905 0.37422922 1.5945719
0.27167302 0.36603439 1.5910001
0.74056894 0.37104964 1.5928334
0.76610613 0.37434924 1.5950005
0.79445213 0.37477174 1.6004633
0.82445443 0.37478614 1.6118695
0.84404051 0.37621588 1.6190002
0.14393125 0.41150761 1.6172857
0.16338858 0.40553659 1.615
0.1947965 0.40600172 1.6130339
0.22320366 0.40467295 1.5949264
0.25594306 0.40568265 1.5913241
0.2769812 0.41054168 1.591
0.3043389 0.41707483 1.5910001
0.77333915 0.40487993 1.591222
0.79561508 0.40421167 1.5979334
0.82701898 0.40462905 1.6106278
0.84834933 0.40129757 1.6169999
0.13866512 0.43496025 1.6152166
0.16548966 0.43555 1.6132547
0.1949202 0.43439266 1.6022141
0.22417322 0.43424246 1.5949231
0.25464323 0.43490636 1.5953776
0.2839959 0.42990205 1.5927143
0.31441119 0.42961898 1.593778
0.7456407 0.43427074 1.5916666
0.76562601 0.43475413 1.5962002
0.79461551 0.43508279 1.6030002
0.82022315 0.43308309 1.6145
0.84154737 0.42025986 1.6190001
0.1393096 0.46496886 1.6159414
0.16543619 0.46343812 1.6102142
0.19523101 0.46474582 1.6004694
0.22363809 0.46398619 1.597857
0.24943382 0.4654569 1.5947074
0.74771023 0.46777508 1.591
0.76666689 0.46541968 1.5950791
0.79457074 0.46493238 1.6018572
0.81800991 0.46852407 1.6135455
0.11856052 0.50336176 1.6190001
0.13599804 0.49645352 1.6161771
0.16528748 0.49601912 1.6157219
0.19526438 0.49563763 1.6045275
0.22404365 0.49525416 1.598719
0.25367838 0.49524921 1.5962147
0.27666461 0.49605992 1.5917616
0.74023712 0.49607813 1.5925384
0.76498699 0.49626264 1.5956796
0.79505414 0.49456429 1.5993261
0.82505655 0.49470118 1.6111112
0.84154737 0.50128424 1.6190001
0.13481468 0.52454323 1.61175
0.16511209 0.52437025 1.6069998
0.19523403 0.52448469 1.6048256
0.22627746 0.52539605 1.5989261
0.24804975 0.52397299 1.5911665
0.74123424 0.52306205 1.5912578
0.76672512 0.52486938 1.5950006
0.79683453 0.52524203 1.5993637
0.82572341 0.52503121 1.6117568
0.84154737 0.51374948 1.6190001
0.1400111 0.554443 1.6156667
0.16413563 0.55554783 1.6143607
0.19531317 0.55655825 1.6159458
0.22602788 0.55525357 1.6017118
0.25534382 0.55613524 1.5926006
0.28136602 0.55846357 1.5912422
0.30025566 0.56815457 1.5910001
0.71572495 0.56509215 1.5910001
0.73572767 0.55722481 1.5941582
0.76594079 0.55493528 1.5999409
0.79430264 0.55609637 1.6033001
0.82219088 0.55402058 1.612412
0.1151683 0.59349471 1.6167779
0.1358356 0.58642238 1.6155456
0.16392417 0.58520949 1.6155715
0.19492522 0.58498418 1.6149286
0.22650634 0.58560592 1.6016438
0.25417402 0.58543199 1.5922381
0.28474668 0.58535379 1.5921308
0.31019491 0.58680594 1.5921891
0.7390011 0.57499534 1.5929999
0.7666719 0.58376008 1.5985832
0.79623479 0.58473688 1.6075125
0.8228187 0.58721507 1.6159036
0.84154737 0.59892899 1.6190001
0.11562999 0.60779196 1.6167779
0.13462166 0.61109406 1.614795
0.1645429 0.61101365 1.6161894
0.19444853 0.61043423 1.6109999
0.22425307 0.60917246 1.6006472
0.25635648 0.61114055 1.5988791
0.28497386 0.61126637 1.5969431
0.30586946 0.60748339 1.5914704
0.76809341 0.61274993 1.5972669
0.79554546 0.61582154 1.6093808
0.82475758 0.61542708 1.614333
0.84574294 0.6142779 1.6118
0.83117855 0.63060796 1.6150001
0.05092793 -0.66383207 1.649
0.071848385 -0.66168505 1.6436667
0.048714254 -0.64573985 1.6460284
0.073641069 -0.64419699 1.6367276
0.10441557 -0.64321464 1.6295273
0.13643822 -0.64180666 1.6274784
0.16218655 -0.64118057 1.6263783
0.18144558 -0.63292831 1.6240001
0.77506536 -0.63408089 1.625778
0.79498333 -0.64154094 1.6299999
0.82349235 -0.64261895 1.6344396
0.85114723 -0.64770752 1.6452856
0.047105726 -0.61402208 1.6474344
0.074078538 -0.61619961 1.6412355
0.1047655 -0.61536443 1.6370488
0.13650931 -0.61620587 1.6349394
0.16439503 -0.61618638 1.6277333
0.18334009 -0.61928785 1.6240004
0.74828392 -0.60375279 1.6240001
0.76644087 -0.61507076 1.6319429
0.79276365 -0.62034136 1.6438378
0.82186943 -0.62921005 1.6433336
0.84021282 -0.62997538 1.649
0.026240736 -0.57213682 1.649
0.045545861 -0.58490688 1.6485889
0.074018262 -0.5862506 1.6450809
0.10495342 -0.58474326 1.6356981
0.13591224 -0.58430713 1.6278373
0.15679155 -0.58681792 1.6248003
0.74828392 -0.59750092 1.6240001
0.76473987 -0.58568668 1.6321213
0.78501034 -0.59028625 1.6475002
0.023176771 -0.55623305 1.6485556
0.044249158 -0.5557698 1.6433194
0.073804505 -0.55507576 1.6402242
0.10469872 -0.55488712 1.6292943
0.13671765 -0.55423075 1.6249093
0.16294803 -0.55257416 1.6250733
0.18227917 -0.54790258 1.6240002
0.74828392 -0.56207347 1.6240001
0.7634449 -0.55582225 1.6354785
0.86560535 -0.54110146 1.649
0.046446264 -0.52463025 1.646583
0.074322358 -0.52483827 1.6409805
0.10467616 -0.52559775 1.6330012
0.13589334 -0.52575099 1.6276733
0.15991132 -0.52692401 1.6240004
0.7709567 -0.53002387 1.6300836
0.79353088 -0.52091348 1.6345263
0.825243 -0.51873642 1.6410004
0.85355967 -0.52327669 1.6461577
0.027651433 -0.50512874 1.649
0.04674428 -0.49665597 1.6487942
0.080805644 -0.49043915 1.6480477
0.10425165 -0.49484882 1.6329446
0.1322158 -0.50610965 1.624364
0.15227009 -0.5078904 1.6240001
0.80202842 -0.49884239 1.6273335
0.82483625 -0.49540314 1.6414515
0.84021282 -0.49243242 1.649
0.026240736 -0.45363823 1.649
0.047940571 -0.46218547 1.6489992
0.075280435 -0.46655163 1.6478288
0.10533633 -0.46528324 1.6342298
0.12670678 -0.46232107 1.6240004
0.74611622 -0.45268705 1.6253334
0.76607096 -0.45352063 1.6293335
0.79700655 -0.46169528 1.6322728
0.8240512 -0.47047752 1.6416668
0.84631795 -0.47031614 1.6475002
0.026240736 -0.44305801 1.649
0.04509794 -0.43557334 1.6483185
0.076107904 -0.43170923 1.6457566
0.1054697 -0.43525702 1.6347228
0.13490357 -0.43415219 1.6279181
0.16277173 -0.43029517 1.6272942
0.74072814 -0.43539757 1.6300871
0.7651214 -0.43761882 1.6407678
0.78424323 -0.43424863 1.6470002
0.049045619 -0.40861759 1.6468571
0.074101649 -0.40402317 1.6412292
0.10493752 -0.40603569 1.6334295
0.13672812 -0.40592825 1.6343805
0.16580588 -0.40612286 1.6389436
0.18555051 -0.40271625 1.6275557
0.74594879 -0.4172211 1.628
0.76720303 -0.41125298 1.628762
0.79487479 -0.40565202 1.6346114
0.82267326 -0.39949659 1.6368824
0.84767896 -0.39572042 1.645
0.078742258 -0.37683636 1.6474239
0.10505398 -0.37608865 1.6389686
0.13547248 -0.37706363 1.632556
0.16422516 -0.38024861 1.6313462
0.18452387 -0.38487563 1.6266667
0.80632335 -0.37286219 1.6245717
0.82372147 -0.37576494 1.6314448
0.84804451 -0.37462312 1.644111
-0.0028196196 -0.34050038 1.6489999
0.012827261 -0.33828437 1.6468182
0.049323529 -0.33574387 1.6485001
0.075868934 -0.3445693 1.6458567
0.10506096 -0.34501579 1.6386
0.12722029 -0.34781706 1.6263161
0.80496776 -0.35451061 1.6240002
0.82494187 -0.34582493 1.6293684
0.85228384 -0.34432927 1.6423335
-0.0019732018 -0.32526484 1.649
0.016413344 -0.31865746 1.6465998
0.044505931 -0.31631809 1.646469
0.074021183 -0.31600755 1.6449177
0.10570297 -0.3154242 1.6389309
0.13317156 -0.3166824 1.6252096
0.15871142 -0.32336485 1.6240004
0.82582647 -0.31367764 1.6278183
0.85601681 -0.3152476 1.6415588
0.027651433 -0.29987231 1.649
0.045902323 -0.29696277 1.649
0.074667476 -0.28682554 1.6474676
0.10375553 -0.28599998 1.6436664
0.13378713 -0.28486809 1.6332146
0.15227009 -0.27240241 1.6240001
0.80463934 -0.28429213 1.6254121
0.82538426 -0.2844846 1.6306127
0.85527235 -0.28646389 1.6407429
0.04977262 -0.24882628 1.64724
0.073824853 -0.25505906 1.6427797
0.10506815 -0.25542849 1.6354119
0.13447891 -0.25556758 1.6293957
0.15227009 -0.26615053 1.6240001
0.80557674 -0.25722924 1.6246668
0.82513481 -0.25421241 1.6275915
0.854554 -0.25497127 1.6354722
0.027651433 -0.22369468 1.649
0.045004942 -0.22362691 1.6451702
0.073941305 -0.22533704 1.6433467
0.10473978 -0.22538985 1.6305538
0.12863304 -0.22554117 1.6244805
0.80663496 -0.23697503 1.6240001
0.82806003 -0.2301843 1.6272591
0.85583913 -0.22658582 1.6413335
0.050460964 -0.19613425 1.6466296
0.073821299 -0.19522598 1.64094
0.10214728 -0.19546092 1.6268697
0.13761047 -0.19040918 1.6240004
0.16443406 -0.18894684 1.6251853
0.18509252 -0.18643889 1.6240003
0.82983071 -0.18927349 1.6248003
0.85585546 -0.19474562 1.6374242
0.056747057 -0.16285837 1.649
0.074323684 -0.16457596 1.6397502
0.10472973 -0.16657484 1.6261823
0.13559838 -0.16612023 1.6240004
0.16400385 -0.16797771 1.6268836
0.18571664 -0.17263159 1.6249235
0.80046827 -0.16405629 1.6254121
0.82364029 -0.16542746 1.6337407
0.85443115 -0.16440807 1.6427997
0.027651433 -0.13058868 1.6489999
0.044894069 -0.13334538 1.6408911
0.074355267 -0.13412854 1.6296542
0.10775662 -0.13194321 1.6240004
0.12991484 -0.1394076 1.6240004
0.80163407 -0.13657075 1.6252309
0.82471931 -0.13286203 1.6330792
0.85417557 -0.13478442 1.6416954
0.046206959 -0.11044549 1.6447586
0.074692369 -0.10524825 1.6397802
0.10539127 -0.10370734 1.6320746
0.12826131 -0.10204313 1.6252176
0.80496776 -0.10735244 1.6240003
0.82495594 -0.10359029 1.6277499
0.85185707 -0.10443866 1.6314443
0.05640186 -0.067923248 1.6482
0.074227236 -0.075093418 1.6440206
0.10501919 -0.074927129 1.634733
0.13317262 -0.074010983 1.6262999
0.83139437 -0.078863479 1.6244709
0.85238165 -0.07477726 1.6317712
0.053967413 -0.047378533 1.6468825
0.075580433 -0.045516659 1.6335894
0.10670496 -0.045372516 1.6283259
0.13072228 -0.048129633 1.6241382
0.83858913 -0.056364764 1.6240001
0.85400826 -0.045908585 1.6294402
0.054909464 -0.016314425 1.6485556
0.074191861 -0.016488448 1.6416196
0.10422152 -0.016381761 1.6312885
0.12309459 -0.024410645 1.6240001
0.83302277 -0.012838281 1.6253338
0.85455102 -0.015532434 1.6349394
0.045465574 0.014188171 1.6489995
0.074067391 0.013280834 1.646224
0.10147597 0.014638893 1.6315688
0.83261317 0.009916408 1.6254121
0.85316896 0.015261809 1.633275
0.047991548 0.043150693 1.6459755
0.074725635 0.045218114 1.6361001
0.10356445 0.047036979 1.6283634
0.13572288 0.057080116 1.6255387
0.15976763 0.057127789 1.6248891
0.8345601 0.048944902 1.6240003
0.85297805 0.046695858 1.6329147
0.054671969 0.077543244 1.6471335
0.072194584 0.074777536 1.6302955
0.11000107 0.074029297 1.627111
0.13615845 0.075935781 1.6307758
0.16084392 0.073062263 1.6251253
0.83766288 0.073767237 1.6240003
0.8531307 0.075219281 1.6305331
0.049283393 0.10707686 1.6430936
0.074114449 0.10636143 1.6288005
0.10783421 0.10638767 1.6294547
0.13588938 0.10502821 1.6276737
0.1541646 0.10820529 1.6240004
0.85479075 0.10470792 1.628762
0.049285084 0.13735706 1.6468062
0.075590707 0.13479398 1.6339643
0.10686828 0.13198243 1.6259489
0.13572535 0.1341009 1.625551
0.15630463 0.13341044 1.6248003
0.80663496 0.12563479 1.6240001
0.83388287 0.13594903 1.6246158
0.85519379 0.1357075 1.6350645
0.021831 0.1665682 1.6447198
0.044317707 0.1646708 1.6393678
0.07448592 0.16368045 1.634135
0.10547648 0.16480686 1.6287209
0.13635549 0.16445729 1.6274618
0.15227009 0.16493241 1.6240003
0.8335948 0.16598487 1.6254121
0.85551059 0.16452983 1.637743
0.023096593 0.18962158 1.6463336
0.044511437 0.19437809 1.643437
0.073548488 0.19359009 1.6346334
0.10481215 0.19319913 1.6314294
0.13578436 0.19509003 1.6273724
0.16138743 0.20352298 1.6240004
0.83468544 0.19284463 1.6261336
0.85548729 0.19485909 1.6379188
0.055737123 0.22413744 1.649
0.074474677 0.22448322 1.6394041
0.10489836 0.22410932 1.6291432
0.13558708 0.22568218 1.6288627
0.15842275 0.22129866 1.6240003
0.8399784 0.2131613 1.6240001
0.8544094 0.21633027 1.6270003
0.07578849 0.25443888 1.6411555
0.10366011 0.25475717 1.6263481
0.13565908 0.25495082 1.6247349
0.1541646 0.25825074 1.6240004
0.85457134 0.26497534 1.6248001
0.07564842 0.28436109 1.6448046
0.10476112 0.28524229 1.6309464
0.13365802 0.2809459 1.6243337
0.15810516 0.27734745 1.6240004
0.80663496 0.29235196 1.6240001
0.82649601 0.28762171 1.6310626
0.85193175 0.2871365 1.6345499
0.057276066 0.32436103 1.649
0.075102814 0.31477475 1.6466799
0.10292705 0.31449071 1.6311964
0.12309459 0.30068782 1.6240001
0.82688189 0.30807418 1.6279999
0.85181701 0.31134316 1.6284285
0.05516002 0.33282524 1.649
0.079029694 0.34049052 1.6482
0.10294697 0.3466419 1.632587
0.13012797 0.35408941 1.6240004
0.8551392 0.35010502 1.6247276
0.085490011 0.37655684 1.649
0.10438771 0.37561479 1.6427881
0.13228041 0.37781176 1.6290278
0.85444725 0.37376454 1.6257503
0.057276066 0.41746706 1.649
0.077789575 0.41188511 1.6480477
0.10553715 0.4067516 1.647318
0.1315579 0.40338755 1.6323961
0.85526085 0.41600052 1.6240001
0.05516002 0.43651143 1.649
0.074121527 0.43603805 1.6472042
0.10733934 0.43466693 1.6436733
0.12533014 0.43459612 1.6260003
0.83466357 0.44052306 1.6254548
0.85368401 0.43634725 1.6324816
0.057276066 0.46613607 1.649
0.072664425 0.47162941 1.6486796
0.10775129 0.46779323 1.6387037
0.12567113 0.46615133 1.6256474
0.83331567 0.46247184 1.6280003
0.85735935 0.46604574 1.6412778
0.078418113 0.49210724 1.6459033
0.10418069 0.49413401 1.6299624
0.12448391 0.485466 1.6240001
0.85421556 0.49318594 1.6294827
0.08422929 0.5172947 1.6485001
0.1051548 0.52463382 1.6355491
0.12309459 0.5382598 1.6240001
0.85241538 0.52590585 1.6270401
0.10693338 0.55572355 1.639863
0.12732989 0.55848032 1.6248893
0.83789444 0.56326735 1.6240001
0.85417449 0.55480653 1.6313337
0.086900704 0.58675063 1.649
0.10363674 0.58318162 1.6347895
0.12726252 0.57525015 1.6240003
0.83581054 0.58271766 1.6240003
0.85379773 0.58465183 1.6326944
0.086900704 0.61214316 1.649
0.10176378 0.61532778 1.6326193
0.138377 0.6257863 1.6240001
0.16060594 0.6257863 1.6240002
0.85248214 0.6007787 1.6240001
0.095904693 0.63264662 1.6440001
-0.0054456606 -0.66878855 1.6752002
0.013420221 -0.6657418 1.666696
0.035376139 -0.66414696 1.654
0.87671983 -0.66159999 1.654
-0.0039161732 -0.64950365 1.6751112
0.015092549 -0.64413643 1.666898
0.034130279 -0.64517337 1.6554286
0.85966009 -0.63646817 1.6605
0.87690693 -0.64243656 1.6630837
0.017329406 -0.61494225 1.6662004
0.03252048 -0.61668742 1.6545001
0.80383158 -0.60941762 1.6583334
0.82493007 -0.62166023 1.6671765
0.85375136 -0.62338686 1.6737897
0.87260956 -0.62595242 1.6760001
-0.008317464 -0.57866871 1.6719414
0.015039033 -0.58574247 1.6607952
0.031980198 -0.59368122 1.6539999
0.77908659 -0.5724566 1.654
0.7972731 -0.58479929 1.6635418
0.81343842 -0.59181207 1.6710001
0.8661527 -0.58237225 1.6702355
0.87803113 -0.58438039 1.6686001
-0.014396776 -0.55338782 1.6690445
0.010478225 -0.5541209 1.6558667
0.031980198 -0.54274219 1.654
0.77908659 -0.56608921 1.654
0.79518098 -0.55511785 1.6650003
0.82734555 -0.54455286 1.6726002
0.85821855 -0.55258012 1.6623055
0.87508428 -0.55546266 1.6566428
-0.013794788 -0.52456534 1.6687918
0.014628061 -0.52539837 1.6578332
0.032687686 -0.53000736 1.6540002
0.068062037 -0.51302767 1.654
0.80224669 -0.53979951 1.6580001
0.83122385 -0.5350275 1.6564001
0.85689241 -0.5247696 1.6553335
0.87700891 -0.52330804 1.6590002
-0.0043917676 -0.49920452 1.6741115
0.014732294 -0.49499291 1.6656402
0.035860311 -0.48710519 1.655091
0.069426462 -0.49892852 1.6539996
0.85592353 -0.49568784 1.6575477
0.87904608 -0.49498218 1.6668501
-0.010593682 -0.46239424 1.6715357
0.013904628 -0.46548486 1.6609026
0.037448999 -0.47225779 1.6545714
0.068592653 -0.45625186 1.6540002
0.8034538 -0.45430601 1.6605
0.82554346 -0.4638308 1.6628336
0.85602778 -0.46826875 1.6609522
0.8771472 -0.47073466 1.6675003
-0.011368243 -0.43569228 1.6726154
0.013833301 -0.4340775 1.6598481
0.031980198 -0.42600679 1.654
0.068062037 -0.44510892 1.6539999
0.79714286 -0.43659839 1.6624708
0.8195399 -0.42572558 1.67375
0.84823489 -0.42091975 1.6760001
-0.0056888941 -0.41158429 1.674286
0.01492447 -0.40534228 1.6664423
0.038386412 -0.40116301 1.6558748
0.061694656 -0.39416987 1.654
0.80455613 -0.41539448 1.654
0.82521719 -0.41543794 1.6614286
0.85715282 -0.40725875 1.6608126
0.87858278 -0.40275922 1.6686252
-0.0093270577 -0.36969209 1.6720003
0.015860315 -0.37530699 1.6677173
0.045394287 -0.37593517 1.6615852
0.064801879 -0.37343165 1.6551111
0.86345446 -0.3782514 1.6540002
0.87705421 -0.37489945 1.6626669
-0.01472052 -0.34474516 1.6646488
0.017363979 -0.35203308 1.6564499
0.043655802 -0.34789681 1.6565588
0.063392624 -0.35256964 1.654
0.86822999 -0.34959817 1.654
0.87803823 -0.34459248 1.6605002
-0.032115202 -0.31768644 1.6760001
-0.015223995 -0.31426859 1.6672126
0.010198482 -0.30526906 1.6568667
0.091409117 -0.30078155 1.654
0.87565756 -0.32452059 1.6560001
-0.0094893854 -0.2873604 1.6731611
0.01505847 -0.28515065 1.661939
0.044236757 -0.28150076 1.6561
0.06275589 -0.28061816 1.654
0.87247491 -0.28804681 1.6539999
-0.038369205 -0.24830732 1.674462
-0.013513881 -0.25450733 1.670293
0.015053972 -0.25523588 1.6614085
0.039281968 -0.25885317 1.6561669
-0.039360613 -0.22583987 1.6735154
-0.014820491 -0.22572701 1.6639392
0.014740036 -0.2245394 1.6551872
0.031980198 -0.21376063 1.654
0.87247485 -0.22225051 1.6540002
-0.034863953 -0.1980641 1.6751432
-0.015089265 -0.19529842 1.6652744
0.015036331 -0.19513696 1.6582043
0.037428509 -0.19199748 1.6560909
-0.0075838072 -0.17079745 1.6719002
0.015116116 -0.16625479 1.6671631
0.042489905 -0.16593623 1.660805
-0.0020055103 -0.14348036 1.6760001
0.013883689 -0.136962 1.6655117
0.0362509 -0.14808363 1.6553334
0.01793964 -0.1057691 1.6666412
0.042176269 -0.097472198 1.6543996
0.061694656 -0.092780344 1.654
-0.032115202 -0.0746582 1.6760001
-0.013844171 -0.074582554 1.6694763
0.015047722 -0.076103948 1.6603265
0.04341124 -0.076755263 1.6559089
0.061694656 -0.088535428 1.654
-0.0070092157 -0.051086664 1.6714447
0.015073013 -0.046331733 1.6632661
0.039734554 -0.045366146 1.6568439
-0.0020055103 -0.029493656 1.6760001
0.015077094 -0.01649341 1.6656739
0.042407498 -0.016390327 1.6552498
0.017094916 0.012815857 1.664119
0.038347583 0.0069753374 1.6540002
0.018675823 0.043980632 1.6668649
0.033931732 0.046566162 1.655091
0.021616476 0.073639929 1.6736788
0.040483933 0.074341394 1.660028
0.016822845 0.10409964 1.6705352
0.035394873 0.10333689 1.6571053
-0.0030808565 0.14363709 1.6760001
0.015315032 0.13498896 1.6658003
0.036482435 0.13394016 1.655111
-0.0058449195 0.16249162 1.6714741
0.0075412933 0.16458319 1.6586803
-0.0032944898 0.19146466 1.6748002
0.011842495 0.19839643 1.6606877
0.040470045 0.20860916 1.654
-0.0029613737 0.22381012 1.6760004
0.014885528 0.22469848 1.6655333
0.04149355 0.22593582 1.6548682
-0.0020055103 0.24579497 1.6760001
0.015957516 0.25302309 1.6728371
0.045443799 0.25553897 1.6608918
0.061694659 0.2561523 1.654
-0.004156203 0.28450745 1.6760004
0.019792255 0.28602681 1.675
0.044938829 0.28479263 1.6633673
0.062907495 0.28137925 1.6540002
0.01589518 0.31479752 1.6712158
0.04381755 0.31427118 1.6592599
0.061694656 0.30411994 1.654
-0.0020055103 0.33612409 1.6760001
0.015609274 0.34392202 1.6697044
0.043828752 0.34593499 1.6566001
0.069708139 0.34810349 1.6543075
-0.0020055103 0.3877407 1.6760001
0.018830666 0.37817007 1.673412
0.044853032 0.37544224 1.6596528
0.071512386 0.37405935 1.6545124
-0.0020055103 0.40064484 1.6760002
0.015378598 0.40395251 1.6678334
0.044595014 0.40502989 1.6598334
0.071493439 0.40234986 1.6546057
0.097473301 0.41054621 1.6540002
0.022113957 0.43254521 1.6726195
0.041232157 0.43469405 1.6609719
0.093956068 0.44292888 1.654
0.023561411 0.46708575 1.6744003
0.043877352 0.46560746 1.6609573
0.076021262 0.46171269 1.6539997
0.094946541 0.45835209 1.6539999
0.018116672 0.49411958 1.6713592
0.044620857 0.49537662 1.6609793
0.067113407 0.50070232 1.6550667
0.023778025 0.5162909 1.6744
0.04626577 0.52563649 1.667907
0.072457634 0.52726793 1.6590259
0.091409117 0.53546822 1.654
0.026670391 0.5669651 1.6760001
0.046279557 0.55620164 1.670378
0.07462547 0.55523288 1.6586936
0.092116602 0.55174047 1.6540002
-0.011342373 0.59223545 1.6730871
0.015730141 0.58573335 1.6723912
0.044869322 0.58477855 1.6702553
0.072887965 0.5847044 1.6598144
-0.012802437 0.61282229 1.6734866
0.01543446 0.61473078 1.6725836
0.044944864 0.61466867 1.6724166
0.073286481 0.61505288 1.6631794
-0.004156203 0.63507032 1.6760001
0.016211908 0.63805008 1.6745601
0.045285068 0.63893747 1.674857
0.073339693 0.63740981 1.6676959
-0.067499653 -0.6742745 1.7059501
-0.046097379 -0.67206252 1.695125
-0.020808961 -0.66952771 1.6829998
-0.063412964 -0.65689892 1.7080001
-0.043824192 -0.64554709 1.7010199
-0.017183958 -0.64327294 1.6867083
0.88993192 -0.63216364 1.6830001
-0.034920134 -0.61700904 1.7079999
-0.015318315 -0.61676466 1.6976596
0.0028440559 -0.61632198 1.6825001
0.83360672 -0.60922176 1.6852665
0.85727596 -0.61084425 1.6873075
0.88520443 -0.61604124 1.6857669
-0.06450884 -0.57689983 1.7080001
-0.044267762 -0.58415669 1.700027
-0.019543527 -0.58831388 1.6867274
0.80618519 -0.57748723 1.6810001
0.82668775 -0.58479822 1.6926155
0.85859275 -0.58729345 1.6946365
0.88887441 -0.59905833 1.6810001
-0.067509443 -0.55483413 1.7062
-0.045834366 -0.554694 1.6907333
-0.027896795 -0.56670171 1.6810001
0.80906135 -0.5688588 1.6810001
0.82736611 -0.55809754 1.6898825
0.8501783 -0.56193995 1.6913335
-0.067746975 -0.52498347 1.7066667
-0.0451461 -0.52480829 1.6917925
-0.024661133 -0.51385254 1.6810001
-0.067328416 -0.50236255 1.7072001
-0.045295604 -0.49603605 1.7021428
-0.017434269 -0.49551404 1.686465
-0.10067281 -0.45087388 1.7080001
-0.075311065 -0.45150012 1.7080001
-0.045030337 -0.46446383 1.6976979
-0.023309242 -0.46791992 1.6820666
0.82756686 -0.45937443 1.6923637
0.85736966 -0.46559069 1.6935334
0.88579267 -0.46233326 1.6950001
0.90322292 -0.46293771 1.7040001
-0.099090375 -0.43688157 1.7065265
-0.076702237 -0.43421656 1.7042325
-0.045277759 -0.43458661 1.6943998
-0.026115799 -0.4342967 1.682
0.82636547 -0.43655086 1.6906668
0.85645115 -0.43020576 1.6943573
0.88458323 -0.43001959 1.6978825
0.90322292 -0.43232504 1.7040001
-0.094097547 -0.41142228 1.7080001
-0.075985871 -0.40567133 1.7010435
-0.045419063 -0.40507531 1.6906191
-0.017902834 -0.40326455 1.6833515
0.88561261 -0.41727978 1.6830001
-0.071708582 -0.3756496 1.6993335
-0.045783419 -0.37517497 1.6889814
-0.019296519 -0.37946784 1.6829262
0.0023027242 -0.38766167 1.6810001
-0.070021525 -0.34506917 1.7026297
-0.044983547 -0.34558597 1.6918222
-0.027918922 -0.3469584 1.6823334
-0.06739825 -0.31479996 1.702773
-0.046655592 -0.31479159 1.6888752
-0.027896795 -0.30137733 1.6810001
-0.070315294 -0.2829569 1.7051599
-0.045040481 -0.28562486 1.6931914
-0.02317949 -0.28204876 1.6827999
-0.072853968 -0.2541202 1.6975278
-0.048759419 -0.25794455 1.6843126
-0.026458723 -0.26542553 1.6810001
-0.07397677 -0.22559573 1.6959287
-0.054341387 -0.22299205 1.6841053
-0.072011881 -0.19754723 1.7037647
-0.048956543 -0.19270317 1.6875279
-0.027896795 -0.18057926 1.6810001
-0.069780074 -0.16542451 1.702643
-0.045486137 -0.16450119 1.6932453
-0.019226616 -0.16127838 1.6879375
-0.065896615 -0.14397843 1.7074287
-0.045749221 -0.13485065 1.7029588
-0.015923474 -0.13339952 1.6917175
0.0023027242 -0.12233731 1.6810001
-0.044221405 -0.10367391 1.7010913
-0.015060229 -0.10573219 1.6911666
0.0042219805 -0.10828475 1.6823335
-0.045237552 -0.07375934 1.6936818
-0.021117311 -0.088748053 1.681
-0.03884453 -0.052198391 1.7035836
-0.019549062 -0.044308353 1.691484
-0.01367198 -0.015635725 1.695524
-0.032728378 0.015970092 1.7080001
-0.015141551 0.013705185 1.6982044
0.0029206066 0.017274981 1.682143
-0.03937111 0.050158828 1.7057894
-0.015112562 0.044127502 1.6957755
0.0041016848 0.041983355 1.682
-0.069478631 0.079879619 1.7061501
-0.045571331 0.074595369 1.6958981
-0.015024678 0.074252158 1.6878574
0.0066174623 0.073975861 1.6813809
-0.072764523 0.10509689 1.7019191
-0.045427795 0.10477127 1.6909387
-0.014999759 0.10440242 1.6849794
0.0030217601 0.099844873 1.6810001
-0.06760174 0.13437153 1.7028999
-0.045400415 0.13506384 1.6896735
-0.016049497 0.13374674 1.6841333
-0.063412964 0.15624246 1.7080001
-0.042546351 0.16407643 1.7007778
-0.020793695 0.16586073 1.6869335
-0.04270212 0.19759154 1.7016922
-0.018036991 0.1962564 1.6882052
-0.063412964 0.22637863 1.7080001
-0.045476709 0.22530954 1.6952497
-0.017680952 0.22533885 1.6831
-0.066099077 0.25853232 1.7076924
-0.045566022 0.25513947 1.6952709
-0.015808329 0.25581178 1.6816086
0.0057540978 0.26551083 1.6810001
-0.071517676 0.28565621 1.7046666
-0.045443479 0.28486922 1.6909599
-0.017065115 0.28542167 1.6813902
0.0090822084 0.2830964 1.681
-0.06977158 0.31416449 1.7067692
-0.046193715 0.3154377 1.6973556
-0.014539684 0.3156651 1.6845105
0.0023027242 0.31124154 1.6810001
-0.067212 0.34283397 1.7080001
-0.045218624 0.34476638 1.7001065
-0.015818484 0.34569368 1.6874089
0.0037407966 0.35725984 1.6810001
-0.043864332 0.3743006 1.702
-0.015303401 0.37513554 1.6884491
0.0079651335 0.37056205 1.6809999
-0.039747722 0.40137091 1.704286
-0.016875887 0.4044733 1.6891317
0.0023027242 0.41909695 1.6810001
-0.010917251 0.43370837 1.6996876
0.0087845987 0.43760002 1.6842728
-0.037100941 0.47576565 1.7074287
-0.013804258 0.46643424 1.6983914
0.00959625 0.46343055 1.684375
-0.039285958 0.49401182 1.7070769
-0.015011583 0.49465299 1.6938332
0.0035980854 0.4930993 1.6818001
-0.034920137 0.51349866 1.7080001
-0.013391566 0.5250771 1.7024865
0.012778055 0.527946 1.6881614
0.032502245 0.53773791 1.6810001
-0.0099478373 0.55871987 1.7036451
0.014609927 0.55500853 1.6905601
0.032502245 0.55068052 1.6810001
-0.063412964 0.59678537 1.7080001
-0.043551788 0.58643502 1.6986799
-0.017532889 0.57958394 1.6905
0.008540228 0.57309538 1.6827778
-0.069433346 0.616813 1.7041483
-0.045396492 0.61438388 1.689245
-0.026469788 0.6213944 1.6816667
-0.071012959 0.6383009 1.7061877
-0.045774281 0.64443761 1.6990834
-0.017242128 0.64166325 1.6853104
0.0066169412 0.6477505 1.6810001
-0.096208856 -0.69466197 1.7300001
-0.085830115 -0.69160914 1.7180001
-0.095584258 -0.67478961 1.7270951
-0.0808983 -0.67449605 1.7149562
-0.09375605 -0.65611982 1.7320002
-0.075374193 -0.64538413 1.7241663
-0.05710616 -0.6368475 1.7160001
-0.12244285 -0.6011833 1.7370001
-0.10110392 -0.61146635 1.7347999
-0.075073555 -0.61448622 1.7252705
-0.049725804 -0.61589384 1.7158823
-0.12984605 -0.58366281 1.7357999
-0.1042584 -0.58493882 1.7276522
-0.076000884 -0.58524072 1.716781
-0.058146369 -0.59441173 1.7142501
0.85191315 -0.58341396 1.7147917
-0.1317302 -0.55660373 1.7369998
-0.10414708 -0.5552811 1.7289385
-0.08127851 -0.55392683 1.7149048
-0.12378023 -0.52628988 1.7370002
-0.10423464 -0.52478635 1.7287449
-0.081544794 -0.52472633 1.7156318
-0.12745804 -0.49252096 1.737
-0.1034605 -0.49495938 1.7271737
-0.076971494 -0.49264225 1.7170002
-0.059202258 -0.48516631 1.7130001
-0.16354747 -0.46317238 1.734031
-0.13535157 -0.46378005 1.7281464
-0.10453061 -0.46660566 1.7192498
-0.074936621 -0.46667823 1.7162727
-0.059202258 -0.47857183 1.7130001
0.83765191 -0.46098647 1.7130001
0.85469157 -0.46241456 1.7249335
0.88439149 -0.45721295 1.72464
0.90854454 -0.45594755 1.7230834
-0.15988907 -0.4385125 1.7352607
-0.13449962 -0.43401 1.7254314
-0.11040206 -0.43197459 1.7154782
0.83765191 -0.44779745 1.7130001
0.85796863 -0.44421574 1.7210001
0.88564456 -0.44389367 1.7183001
0.90732479 -0.44304031 1.7184002
-0.15364842 -0.4184078 1.7370001
-0.13133197 -0.41007283 1.7341999
-0.10693131 -0.40440926 1.7201751
-0.089976661 -0.39284313 1.7130001
-0.10144774 -0.37602746 1.7256411
-0.085685797 -0.37399587 1.7151113
-0.098178819 -0.34457269 1.7281666
-0.083578415 -0.34527057 1.7169286
-0.12244285 -0.30473036 1.7370001
-0.10278466 -0.31407756 1.7289742
-0.081094623 -0.31573787 1.71565
-0.12769853 -0.28311926 1.7346085
-0.10352139 -0.28600162 1.7236363
-0.082879439 -0.28749171 1.7139374
-0.12510386 -0.25705987 1.7358463
-0.10593395 -0.25571451 1.7235454
-0.088511214 -0.25631225 1.7130002
-0.10365159 -0.22500525 1.7268054
-0.089976661 -0.22358389 1.7130001
-0.12244285 -0.18213703 1.7370001
-0.10175765 -0.19318907 1.7269022
-0.084198147 -0.19005764 1.7146668
-0.12244285 -0.16653425 1.7370001
-0.1039867 -0.16327599 1.7262654
-0.083251484 -0.16548668 1.7137692
-0.10302396 -0.13462014 1.7338419
-0.076550342 -0.13433932 1.7186288
-0.10408068 -0.10578765 1.7279185
-0.074883647 -0.10527209 1.7194526
-0.059202261 -0.10927895 1.7130001
-0.12244285 -0.061772682 1.7370001
-0.10167182 -0.074741922 1.7355893
-0.07517235 -0.07465221 1.7257142
-0.059202258 -0.065315515 1.7129999
-0.12244285 -0.049884845 1.7370001
-0.1028733 -0.045625046 1.7325952
-0.075211741 -0.04369219 1.7271188
-0.048461866 -0.040507667 1.7195134
-0.028427847 -0.032342941 1.7130001
-0.092351772 -0.017193293 1.7370002
-0.07509248 -0.014859783 1.7240833
-0.04618077 -0.014816989 1.7190715
-0.028427847 -0.019153906 1.7130001
-0.092862867 0.011766808 1.7340002
-0.074951351 0.01389659 1.7208334
-0.047899231 0.013524442 1.7145113
-0.094165474 0.055591598 1.7361668
-0.075293936 0.044990912 1.7287142
-0.050236858 0.041015889 1.7168001
-0.10241736 0.077589884 1.7300239
-0.079121299 0.071083136 1.7158637
-0.12244285 0.094255179 1.7370001
-0.1033757 0.10439312 1.7268821
-0.087073527 0.10666908 1.7135558
-0.095936567 0.13218468 1.7327895
-0.081293061 0.13652033 1.7202779
-0.12467182 0.17895602 1.7370001
-0.099787407 0.16931954 1.736107
-0.07606864 0.16526671 1.7225529
-0.055839047 0.17176884 1.7146668
-0.12690079 0.19137457 1.7370001
-0.10337634 0.19441907 1.7362682
-0.075126961 0.19540322 1.7249049
-0.056352738 0.18919916 1.7154168
-0.095955387 0.22461207 1.7339045
-0.076759733 0.22542112 1.7201946
-0.097993411 0.25528887 1.7307036
-0.078505203 0.25456855 1.7172068
-0.10327005 0.28506613 1.7269999
-0.084631115 0.28403819 1.7135558
-0.0994692 0.3130019 1.7271562
-0.082274392 0.31813255 1.7145385
-0.094960488 0.34578186 1.7275
-0.080021836 0.34550902 1.7154583
-0.096405737 0.3705357 1.7336668
-0.0745776 0.37510079 1.7228948
-0.058498334 0.38036919 1.7138335
-0.073570229 0.40570688 1.7309394
-0.052209847 0.40831679 1.7168572
-0.069116637 0.43386787 1.7363479
-0.046094127 0.43600801 1.7271903
-0.024807727 0.43950728 1.7157502
-0.091237284 0.47540897 1.7370001
-0.073475733 0.46550733 1.730525
-0.047238659 0.46429363 1.7206874
-0.025709646 0.45504528 1.7148752
-0.091237284 0.48209587 1.7370001
-0.075242311 0.49492159 1.7273247
-0.054629095 0.49578783 1.714579
-0.07429985 0.52385205 1.7298528
-0.0466576 0.52563757 1.717651
-0.026990058 0.53237486 1.7146668
-0.074229084 0.55565536 1.7318717
-0.046423268 0.55626893 1.7212999
-0.023131484 0.55253077 1.714579
-0.096394449 0.58781099 1.7361666
-0.075154178 0.58437932 1.723182
-0.054480482 0.57607949 1.7151818
-0.095865346 0.61573029 1.7302399
-0.080971688 0.61093128 1.7172859
-0.10020545 0.64442629 1.7281817
-0.07861159 0.65026742 1.7154446
-0.1034188 0.6644991 1.7327143
-0.074971765 0.6633566 1.7215
-0.057004083 0.66008121 1.7130001
-0.21689194 -0.70021272 1.7618332
-0.19385858 -0.6980921 1.7536784
-0.1690826 -0.70451087 1.7612944
-0.13238369 -0.70802474 1.7637776
-0.11310904 -0.6981836 1.7518126
-0.21514855 -0.67681807 1.7641581
-0.20104581 -0.68206239 1.7617147
-0.12448709 -0.66107637 1.766
-0.11251514 -0.67591023 1.7542
-0.21135743 -0.64823461 1.7659999
-0.20493659 -0.64294684 1.7659999
-0.15496501 -0.63791537 1.7632221
-0.13528547 -0.64265758 1.7589688
-0.10629662 -0.64491266 1.7482436
-0.19623667 -0.611808 1.7656001
-0.16217174 -0.61317319 1.7606776
-0.13421647 -0.61507255 1.7478386
-0.11013857 -0.62303388 1.7437861
-0.1935323 -0.58469701 1.7658682
-0.16635522 -0.58406329 1.7514613
-0.14499395 -0.58739716 1.7431115
-0.19020636 -0.55456573 1.7659999
-0.16631797 -0.55434108 1.7522198
-0.1454286 -0.55094111 1.7420005
-0.19060631 -0.52937114 1.7660003
-0.16533737 -0.52405554 1.7583963
-0.13846584 -0.52466106 1.7430912
-0.18806164 -0.49313885 1.7623891
-0.16494621 -0.49509683 1.7520908
-0.1397713 -0.49541551 1.7430372
-0.21060205 -0.45485365 1.766
-0.19254854 -0.46356302 1.7530588
-0.17319277 -0.47688875 1.7430001
0.86516231 -0.46243823 1.7433335
0.87657917 -0.46111181 1.746778
-0.21211283 -0.43747962 1.7659999
-0.19332506 -0.43500483 1.7544392
-0.17130545 -0.43256569 1.7434547
-0.19205897 -0.40683115 1.7597144
-0.16471973 -0.40369689 1.7471551
-0.14030313 -0.40074843 1.744522
-0.2532818 -0.36571714 1.7660002
-0.21901929 -0.3661488 1.7660002
-0.19343777 -0.37416175 1.7658644
-0.16464648 -0.37539962 1.7548043
-0.13419753 -0.37594154 1.74839
-0.11641493 -0.37162951 1.7438184
-0.21910024 -0.35230887 1.7660003
-0.1953862 -0.34899059 1.7659998
-0.1635668 -0.34625295 1.7579565
-0.13452189 -0.34501499 1.749095
-0.11474814 -0.34554109 1.7442225
-0.15992005 -0.31508324 1.7596768
-0.13506174 -0.31605983 1.7474115
-0.11659057 -0.32229897 1.7428001
-0.15702286 -0.28559804 1.7594782
-0.14112151 -0.2873176 1.7445265
-0.18340786 -0.24409865 1.766
-0.16054671 -0.25334063 1.762
-0.13811031 -0.25313291 1.7464138
-0.18454096 -0.236167 1.766
-0.16222639 -0.2277718 1.7652104
-0.13488223 -0.22435881 1.7535474
-0.11841511 -0.22529912 1.7433335
-0.15802661 -0.19242966 1.7659999
-0.13524461 -0.19551468 1.754057
-0.11674988 -0.20239748 1.7435002
-0.15659796 -0.16566163 1.7646114
-0.13636492 -0.16502421 1.7485279
-0.18340786 -0.12172476 1.766
-0.16074601 -0.12827154 1.7660003
-0.13490979 -0.13438304 1.7538096
-0.11832454 -0.14018899 1.7420001
-0.18821089 -0.10371887 1.763778
-0.16438673 -0.10530342 1.7564763
-0.13455313 -0.10486123 1.7492777
-0.18625635 -0.086893819 1.7643332
-0.16248748 -0.078308783 1.762154
-0.13485004 -0.076026961 1.7496583
-0.11608915 -0.07670404 1.7420003
-0.19037995 -0.032347266 1.7645714
-0.16237728 -0.042594943 1.7590001
-0.13522598 -0.043729194 1.746923
-0.11392993 -0.03322994 1.7431431
-0.21060205 -0.017480344 1.766
-0.19387835 -0.015848985 1.7629118
-0.16396081 -0.015087987 1.7518331
-0.13485098 -0.015103266 1.7535001
-0.10822898 -0.014532761 1.7485585
-0.18680713 0.0017822125 1.766
-0.16274211 0.012559642 1.7611223
-0.13470805 0.014122028 1.7514757
-0.10818984 0.014655456 1.7466153
-0.19700496 0.05956988 1.7660002
-0.15636112 0.042611819 1.7649475
-0.13473141 0.045604821 1.7515955
-0.10643625 0.043916214 1.743116
-0.19700493 0.066368431 1.7659999
-0.15751635 0.07755059 1.7627503
-0.13459834 0.074732937 1.7498889
-0.11580861 0.067722611 1.7425717
-0.21496221 0.11386425 1.7645713
-0.19446404 0.11125571 1.7619618
-0.16432659 0.10473597 1.7587081
-0.13471523 0.10405638 1.7479509
-0.11753907 0.11162072 1.7436001
-0.21529661 0.13232626 1.7644618
-0.19457152 0.13364351 1.7612638
-0.16474733 0.13520993 1.7540849
-0.13535471 0.13592708 1.7506588
-0.11118011 0.13676238 1.7458963
-0.19230099 0.16549107 1.7605456
-0.16559067 0.16485839 1.7484859
-0.13675514 0.16557094 1.742936
-0.11137325 0.16105148 1.743143
-0.21785212 0.20129721 1.7635001
-0.19415034 0.19488461 1.7572793
-0.16630341 0.19408572 1.7499264
-0.14068958 0.19673248 1.7421434
-0.11385377 0.20629577 1.7420001
-0.22048244 0.22173801 1.7637998
-0.19448552 0.2239169 1.7597842
-0.16523823 0.22569065 1.7520465
-0.13593765 0.22420169 1.7458299
-0.11187684 0.2246947 1.7421486
-0.21811871 0.25784776 1.7631053
-0.19432648 0.25528789 1.7557001
-0.16460489 0.25481778 1.7554187
-0.1342887 0.2548207 1.7499187
-0.11367969 0.25428215 1.7425718
-0.2174249 0.27793652 1.7625
-0.19431396 0.28422654 1.7553058
-0.16400667 0.28398937 1.7524281
-0.1347362 0.28361586 1.7481948
-0.11683428 0.27484763 1.7420001
-0.18616766 0.30690625 1.7634999
-0.16487177 0.30942354 1.7558
-0.13509953 0.31123 1.7514704
-0.11416828 0.32006052 1.7467502
-0.12448709 0.34510896 1.766
-0.11219916 0.34519327 1.7520002
-0.15168129 0.38363406 1.766
-0.13375019 0.3776232 1.757912
-0.11059707 0.37589017 1.7458571
-0.15168129 0.39043263 1.766
-0.13180122 0.40309739 1.7636091
-0.10531162 0.40491992 1.7515
-0.087029152 0.4052451 1.7420002
-0.15722458 0.44367722 1.7656155
-0.13445544 0.43722832 1.7625721
-0.1055766 0.4346773 1.7525436
-0.082581885 0.43863207 1.742471
-0.1568099 0.46339393 1.7624998
-0.13557909 0.46442208 1.7629447
-0.10642068 0.46445993 1.7534782
-0.085538886 0.45740414 1.7420002
-0.15508056 0.48221302 1.766
-0.13185219 0.49127778 1.7659999
-0.10591889 0.49581146 1.7533044
-0.18340786 0.53546834 1.766
-0.16711345 0.53470802 1.7644376
-0.13278942 0.52772146 1.7635807
-0.10532576 0.52567393 1.7516249
-0.087029137 0.53117186 1.7420001
-0.18491864 0.54151148 1.7660002
-0.1622033 0.55309284 1.7636315
-0.13559461 0.55567467 1.7596051
-0.10560133 0.55659729 1.7501194
-0.087029144 0.5505451 1.7420002
-0.16092485 0.58434111 1.7607144
-0.13459344 0.5844804 1.7499281
-0.11000998 0.58413595 1.7430316
-0.15948653 0.60848224 1.7625791
-0.13444957 0.61479378 1.756
-0.11211474 0.61597914 1.7450871
-0.15168129 0.65784216 1.766
-0.133909 0.64564335 1.7597179
-0.11597212 0.64361471 1.7450002
-0.1543148 0.67286813 1.765
-0.13615261 0.66818076 1.7542692
-0.11832454 0.66678524 1.7420001
-0.24958442 -0.72518104 1.7948571
-0.23115861 -0.72302717 1.7846667
-0.2498509 -0.70611316 1.7925266
-0.23123322 -0.70585996 1.7760438
-0.18392713 -0.69021916 1.771
-0.16310358 -0.69876146 1.7827188
-0.13930131 -0.70127606 1.7848486
