# .PCD v0.7 - Point Cloud Data file format
VERSION 0.7
FIELDS x y z rgb
SIZE 4 4 4 4
TYPE F F F U
COUNT 1 1 1 1
WIDTH 1269
HEIGHT 1
VIEWPOINT 0 0 0 1 0 0 0
POINTS 1269
DATA ascii
5.5987997 15.919596 72.378395 5592405
5.5744209 16.144194 72.374939 5987163
5.5754137 16.123549 72.373489 5197647
5.576314 16.093935 72.370651 5526612
5.5779161 16.063614 72.368729 5329233
5.5787945 16.034555 72.365929 5526612
5.5800118 16.004751 72.363495 5460819
5.5808086 15.975279 72.360481 5395026
5.5832338 15.945333 72.359726 5526612
5.5869827 15.915258 72.360832 5526612
5.5899343 15.885294 72.360832 5395026
5.5907941 15.855377 72.357956 5395026
5.5915513 15.825316 72.355072 5395026
5.5922775 15.795663 72.352242 5460819
5.5936861 15.766979 72.35054 5460819
5.5950255 15.736571 72.34848 5329233
5.5957818 15.716803 72.346977 4539717
5.5706749 15.963723 72.344193 4934475
5.5713902 15.9426 72.342255 5460819
5.5728292 15.913342 72.34021 5460819
5.5742388 15.884982 72.338234 5460819
5.5750284 15.855047 72.335114 5460819
5.575738 15.824877 72.331856 5526612
5.577054 15.7952 72.329681 5395026
5.5800591 15.765044 72.330101 5460819
5.5836625 15.735147 72.331512 5395026
5.5855074 15.705288 72.330299 5395026
5.5865088 15.675482 72.327843 5460819
5.5869446 15.64556 72.324539 5329233
5.588357 15.61642 72.323097 5066061
5.5893464 15.58601 72.321365 4934475
5.590035 15.556192 72.319344 4934475
5.5902681 15.525665 72.316765 5131854
5.5909319 15.505958 72.316002 4605510
5.5667133 15.787218 72.31353 5592405
5.5677352 15.763738 72.311699 5723991
5.5690722 15.735003 72.309837 5395026
5.5700035 15.704477 72.30722 5263440
5.5705385 15.674722 72.304115 5197647
5.5712395 15.644956 72.301239 5263440
5.5728283 15.61499 72.299644 5329233
5.5761042 15.585598 72.300743 5263440
5.5784864 15.55525 72.300812 5066061
5.5798907 15.525309 72.299889 5131854
5.5624156 15.605209 72.282928 5263440
5.5638628 15.582086 72.282051 5395026
5.5648422 15.554771 72.279907 5131854
5.5655317 15.524632 72.277061 5197647
5.7347803 20.382437 73.197006 4934475
5.734107 20.353043 73.192314 5592405
5.7353315 20.327435 73.190643 5592405
5.7211647 20.382263 73.176582 5395026
5.7222786 20.352119 73.174698 5395026
5.7249565 20.321959 73.175003 5263440
5.7268643 20.292259 73.173706 5592405
5.7277966 20.262646 73.170731 5592405
5.7291455 20.23354 73.168404 5592405
5.730463 20.203747 73.165932 5395026
5.7314296 20.176054 73.163277 5197647
5.7093639 20.351091 73.155441 5263440
5.7102079 20.32148 73.153236 5526612
5.7109327 20.291742 73.150818 5329233
5.7122278 20.261513 73.14875 5526612
5.7134953 20.231619 73.146255 5789784
5.7160864 20.202059 73.145615 5592405
5.7190385 20.172092 73.145683 5987163
5.7209921 20.142645 73.144806 5921370
5.7220173 20.112732 73.1427 5789784
5.7230501 20.082558 73.140564 5789784
5.7241945 20.052485 73.138573 5592405
5.7250204 20.023125 73.136185 5395026
5.7259464 19.993002 73.133682 5329233
5.7271099 19.967117 73.131973 5789784
5.7032924 20.200392 73.127724 5987163
5.7045603 20.171204 73.125999 5592405
5.7053165 20.141438 73.123337 5526612
5.7064223 20.111795 73.121086 5395026
5.7071667 20.082268 73.118286 5526612
5.7081194 20.052372 73.115746 5329233
5.7100611 20.022654 73.114655 5526612
5.7126284 19.992352 73.114395 5526612
5.7154655 19.961933 73.114594 5395026
5.7170649 19.932846 73.113304 5395026
5.7180748 19.903223 73.111191 5723991
5.7190313 19.872339 73.108833 5658198
5.7197843 19.84268 73.106026 5395026
5.7211447 19.813852 73.104057 5723991
5.7222433 19.785246 73.101753 5395026
5.7233043 19.766111 73.100662 5723991
5.6986027 20.015558 73.097191 5987163
5.6995955 19.990105 73.095505 5197647
5.7005382 19.961473 73.093422 5658198
5.7013083 19.932148 73.091011 5395026
5.702096 19.902319 73.08857 5395026
5.7031984 19.871927 73.086494 5395026
5.7051454 19.842186 73.085388 5723991
5.7077775 19.812277 73.08506 5526612
5.7109556 19.782566 73.085526 5789784
5.713438 19.752737 73.084999 5855577
5.7145329 19.722595 73.082481 5526612
5.7156696 19.693096 73.080109 5592405
5.7168875 19.663654 73.077858 5723991
5.7171817 19.63192 73.073997 5723991
5.7174625 19.603901 73.070618 5263440
5.7187452 19.581816 73.069374 5263440
5.6947136 19.837341 73.070076 5592405
5.695601 19.810902 73.067764 5658198
5.6967006 19.781307 73.065323 5723991
5.69769 19.751629 73.062721 5723991
5.6987104 19.72201 73.060158 5526612
5.6999035 19.692017 73.057739 5395026
5.7017593 19.662424 73.05632 5197647
5.7038937 19.632879 73.055321 5460819
5.7059307 19.602503 73.054062 5460819
5.708786 19.572491 73.054024 5460819
5.7101707 19.542999 73.051971 5658198
5.7112017 19.513138 73.04908 5460819
5.7126322 19.483505 73.046638 5460819
5.7136879 19.4545 73.043755 5329233
5.7148271 19.432381 73.042023 5395026
5.6904173 19.657036 73.039124 5855577
5.6913872 19.63055 73.036789 5460819
5.6924047 19.601879 73.034279 5460819
5.6935644 19.572239 73.031998 5329233
5.6943178 19.542187 73.029091 5395026
5.695436 19.512201 73.026505 5526612
5.6977768 19.482496 73.025352 5723991
5.7006502 19.452461 73.024895 5658198
5.7037735 19.422338 73.02478 5592405
5.7053242 19.392437 73.022484 5395026
5.7064223 19.363131 73.019669 5789784
5.7077241 19.333803 73.017166 5723991
5.7087483 19.303263 73.014084 5592405
5.7101059 19.273432 73.011581 5921370
5.6862931 19.47683 73.008163 5592405
5.6872644 19.450695 73.005592 5789784
5.6884975 19.422203 73.003075 5395026
5.6895103 19.392473 73.000099 5723991
5.6907063 19.362251 72.997307 5526612
5.6920547 19.332094 72.994736 5526612
5.6946697 19.302366 72.994026 5526612
5.69765 19.272732 72.993851 5592405
5.7003889 19.243193 72.993347 5592405
5.7014861 19.213211 72.990532 5395026
5.7029424 19.182985 72.988251 5789784
5.7035961 19.153694 72.984985 5460819
5.7049465 19.124762 72.98275 5723991
5.7061033 19.097025 72.980392 5263440
5.6824551 19.300735 72.976501 5921370
5.6835804 19.271704 72.973785 5789784
5.6847153 19.242371 72.971138 5658198
5.6858053 19.212248 72.968361 5658198
5.6868849 19.182287 72.965599 5658198
5.6882873 19.152575 72.963326 5526612
5.6910038 19.122738 72.962875 5723991
5.6939664 19.092588 72.962746 5592405
5.6963148 19.063068 72.96183 5723991
5.6973248 19.033676 72.959038 5855577
5.6981974 19.003607 72.95594 5987163
5.6995707 18.973764 72.953522 6316128
5.7015958 18.946007 72.952232 5789784
5.6773858 19.140839 72.946335 6579300
5.6784377 19.121571 72.945183 6118749
5.6796265 19.092133 72.94294 5789784
5.6806479 19.062244 72.94043 6052956
5.6814656 19.031982 72.937592 5723991
5.68262 19.002361 72.93528 5658198
5.6844816 18.972961 72.933823 5855577
5.6888742 18.942411 72.935326 5855577
5.691679 18.91313 72.934837 5921370
5.6931257 18.883467 72.932533 5987163
5.6942129 18.853184 72.929703 5789784
5.695168 18.822786 72.926895 6118749
5.6961598 18.794199 72.924446 6184542
5.6973338 18.765848 72.922264 5658198
5.698597 18.742437 72.920822 6052956
5.6739187 18.968462 72.919205 5526612
5.6750994 18.942492 72.917404 5789784
5.6760807 18.912491 72.914635 5789784
5.6772399 18.882151 72.911911 5723991
5.6784706 18.852194 72.909492 5921370
5.6798038 18.822401 72.907288 5855577
5.6807594 18.793013 72.90464 5855577
5.6837397 18.762943 72.904488 5658198
5.6865988 18.733032 72.904198 5987163
5.6880169 18.703648 72.902138 5789784
5.6889954 18.673838 72.899551 6118749
5.6901383 18.64378 72.897232 6118749
5.6912699 18.613825 72.89492 5789784
5.6922116 18.584 72.892357 5987163
5.6930318 18.556107 72.889626 6118749
5.6691017 18.782305 72.888283 5789784
5.6701837 18.761007 72.886848 5789784
5.6714458 18.73201 72.884651 6052956
5.6724434 18.702654 72.882202 5789784
5.6734004 18.672516 72.879639 5789784
5.6744823 18.642714 72.877281 6052956
5.6754131 18.612757 72.874702 5987163
5.677434 18.583204 72.87355 6184542
5.6803064 18.553095 72.873215 6118749
5.6826825 18.523361 72.872261 6052956
5.6838522 18.493492 72.869888 5855577
5.6848431 18.463665 72.867294 6118749
5.6860447 18.433691 72.864899 5789784
5.687192 18.403303 72.862297 5987163
5.6883516 18.374222 72.859886 5855577
5.6894894 18.350891 72.858215 5723991
5.6652012 18.579222 72.857231 5921370
5.6660833 18.551884 72.854805 5855577
5.6672902 18.521738 72.852425 6052956
5.6683187 18.492334 72.849831 5921370
5.6694069 18.462797 72.847275 5921370
5.6703506 18.432941 72.844482 5855577
5.6719112 18.403154 72.842491 6381921
5.6746888 18.373306 72.842064 5855577
5.6774731 18.343388 72.841644 5987163
5.67945 18.313423 72.840164 6052956
5.6803231 18.28278 72.837082 5723991
5.681757 18.253246 72.834755 5723991
5.6826248 18.225225 72.831909 6052956
5.6848707 18.197693 72.830948 5723991
5.6604595 18.393124 72.826309 6447714
5.6615705 18.370037 72.824638 5921370
5.6627812 18.34178 72.822395 5855577
5.6633973 18.313009 72.819321 6052956
5.6644011 18.283459 72.816582 5723991
5.6657987 18.253502 72.814163 5723991
5.6672106 18.223116 72.811821 6250335
5.6712551 18.19286 72.812958 5855577
5.6737499 18.162823 72.812134 5921370
5.6754375 18.133961 72.810402 6118749
5.6769381 18.104364 72.80825 5987163
5.6784453 18.074772 72.805885 5592405
5.6795979 18.044207 72.802994 5658198
5.6807199 18.014009 72.80043 5855577
5.6557531 18.210909 72.795403 5197647
5.657114 18.190294 72.794121 5855577
5.6578712 18.162823 72.790962 5395026
5.6598511 18.132984 72.789131 5592405
5.6616373 18.103439 72.787071 5460819
5.6626873 18.072798 72.783958 5789784
5.6650591 18.04286 72.783081 5592405
5.6686878 18.013006 72.783974 5658198
5.6705618 17.984365 72.782646 5789784
5.6717682 17.954258 72.780159 5855577
5.6729102 17.923592 72.777298 5987163
5.6738782 17.893772 72.774101 5987163
5.6754017 17.865421 72.771904 6381921
5.6762543 17.836824 72.768906 6250335
5.6534128 18.03454 72.766159 5592405
5.6543469 18.012434 72.764435 5855577
5.65523 17.983803 72.761765 5855577
5.6561875 17.953217 72.758919 5592405
5.6572423 17.922665 72.75605 5592405
5.6585808 17.892246 72.75341 5723991
5.6613626 17.863218 72.752937 5723991
5.6641564 17.834116 72.752472 5723991
5.6666484 17.803507 72.751366 5723991
5.6676841 17.773441 72.748383 5592405
5.6694384 17.744272 72.746506 5723991
5.669982 17.714645 72.742874 5460819
5.6712151 17.683994 72.740227 5658198
5.6722331 17.654663 72.737595 5592405
5.6481028 17.883036 72.737373 5329233
5.6492128 17.861692 72.735733 5592405
5.6501536 17.833796 72.732887 5329233
5.6513138 17.803249 72.730011 5789784
5.6524906 17.772547 72.727341 5723991
5.6532187 17.742821 72.724327 5921370
5.6549225 17.713999 72.722763 5723991
5.6572218 17.684008 72.721832 5921370
5.6597853 17.653215 72.72097 5855577
5.6625137 17.6238 72.720131 5789784
5.6641278 17.594128 72.717758 5987163
5.6648178 17.563549 72.714035 5723991
5.6659079 17.533945 72.711052 5855577
5.6686025 17.506348 72.710548 6052956
5.6437926 17.700878 72.706421 6908265
5.6447253 17.681162 72.705048 5921370
5.6458974 17.653093 72.702614 6052956
5.6468554 17.622849 72.699303 5789784
5.6479712 17.592442 72.696266 5921370
5.6493344 17.563009 72.693764 5723991
5.650898 17.533726 72.691544 5921370
5.654531 17.503391 72.691864 5789784
5.6574287 17.473833 72.691345 5921370
5.6586833 17.443947 72.688637 5789784
5.6601429 17.414598 72.686256 5723991
5.6622 17.384722 72.684563 5592405
5.6633611 17.354788 72.681641 5789784
5.6645021 17.327106 72.679031 5855577
5.6397362 17.52445 72.675461 5460819
5.6408477 17.502775 72.673706 6118749
5.6418858 17.472504 72.670578 5789784
5.6428733 17.442799 72.667458 5658198
5.6448708 17.412634 72.665619 5789784
5.6465273 17.383339 72.66346 5921370
5.6484795 17.35363 72.661629 5855577
5.6515937 17.323418 72.66127 5855577
5.6543922 17.294193 72.660645 5592405
5.6562653 17.263767 72.658577 5789784
5.6573949 17.234081 72.655525 5987163
5.658349 17.204075 72.652138 5855577
5.6596975 17.175663 72.649521 5789784
5.6607361 17.15119 72.647141 5592405
5.6360488 17.349842 72.64444 6316128
5.6370306 17.322372 72.641655 5789784
5.6389532 17.292097 72.639702 5526612
5.6404872 17.263176 72.637421 5789784
5.6415854 17.23313 72.634354 5723991
5.6427331 17.203659 72.631348 5723991
5.6460419 17.174353 72.631248 5855577
5.6497035 17.14381 72.631432 5658198
5.6515827 17.11417 72.629379 5855577
5.6525054 17.084297 72.626007 5723991
5.6539392 17.054445 72.623283 5658198
5.6548572 17.02503 72.619911 5723991
5.656127 16.996849 72.617218 5789784
5.6571836 16.978487 72.615776 4342338
5.6333013 17.170895 72.61348 5723991
5.634913 17.142918 72.611282 5789784
5.6357527 17.113308 72.607773 5789784
5.6370444 17.083529 72.604858 5921370
5.6384783 17.053961 72.602165 5789784
5.6411943 17.024057 72.601158 5723991
5.6445084 16.993849 72.600914 5855577
5.6468945 16.964165 72.599495 5658198
5.6483088 16.934494 72.596741 5592405
5.6493626 16.90464 72.593483 5789784
5.6505966 16.875275 72.590607 5723991
5.652936 16.848083 72.589607 5789784
5.628252 17.043125 72.586525 5921370
5.6293106 17.021803 72.584602 5921370
5.6302681 16.993073 72.581383 5658198
5.6314616 16.963438 72.578339 5855577
5.6324053 16.933496 72.574905 5855577
5.6338778 16.903482 72.572189 5658198
5.6360974 16.873968 72.570641 5723991
5.640276 16.844093 72.571724 5592405
5.6424675 16.814344 72.570122 5789784
5.6438394 16.784479 72.567375 5789784
5.6448593 16.755117 72.564217 5723991
5.6471057 16.725164 72.562645 5526612
5.648324 16.696133 72.559799 5855577
5.6491661 16.672504 72.557281 5263440
5.6247768 16.872679 72.554977 5526612
5.6259527 16.843035 72.551979 5921370
5.6268435 16.813183 72.548553 5658198
5.6279373 16.783316 72.545403 5658198
5.6294241 16.75308 72.542732 5592405
5.631752 16.724161 72.541443 5592405
5.6347585 16.694038 72.540894 5789784
5.6376686 16.663858 72.540192 5723991
5.6393518 16.634842 72.537987 5723991
5.6415052 16.604929 72.536285 5855577
5.6426086 16.57509 72.533218 5723991
5.6435986 16.544706 72.530067 5658198
5.6444969 16.516212 72.527084 5395026
5.6456165 16.497736 72.525879 6645093
5.6204729 16.717087 72.524651 5723991
5.6214333 16.692844 72.522255 5263440
5.6224189 16.663179 72.519035 5460819
5.6237612 16.632824 72.516174 5658198
5.6256433 16.603594 72.514229 5460819
5.6268167 16.573647 72.511337 5526612
5.6291332 16.544052 72.510185 5658198
5.6318665 16.513792 72.509483 5658198
5.6354389 16.483894 72.509941 5723991
5.6366987 16.45459 72.507324 5658198
5.6376896 16.425028 72.504311 5526612
5.6385288 16.394815 72.500999 5855577
5.6397233 16.365776 72.498482 5526612
5.640523 16.339554 72.49588 5460819
5.6168356 16.542065 72.492729 5460819
5.6177726 16.513664 72.48996 5066061
5.6198616 16.483551 72.488503 5723991
5.6208105 16.45397 72.485474 5592405
5.621747 16.424265 72.482384 5658198
5.623127 16.394619 72.479904 5658198
5.6260533 16.364933 72.479553 5592405
5.629693 16.334166 72.48011 5526612
5.6316462 16.304535 72.478615 5855577
5.6326647 16.274389 72.475761 5789784
5.6336908 16.244675 72.472954 5723991
5.6343741 16.214537 72.469597 5526612
5.636611 16.187057 72.468788 5658198
5.6375923 16.166348 72.467262 5197647
5.6121817 16.381636 72.462837 5066061
5.6138568 16.35981 72.462036 5526612
5.6152229 16.333269 72.460045 5789784
5.6158314 16.303635 72.456558 5460819
5.6170216 16.273752 72.453957 5855577
5.6178427 16.243567 72.45079 5855577
5.6199818 16.214592 72.449623 5592405
5.6242123 16.184072 72.451134 5658198
5.6265583 16.154125 72.450157 5526612
5.6276665 16.124573 72.447601 5723991
5.6285973 16.094694 72.444778 5855577
5.6297626 16.06539 72.442383 5395026
5.6311178 16.035131 72.440132 5526612
5.6322613 16.006199 72.437782 5658198
5.6330976 15.984282 72.436028 5658198
5.6093349 16.208733 72.433998 5460819
5.6102018 16.183517 72.431602 5395026
5.6110482 16.153231 72.428452 5789784
5.6118984 16.123476 72.4254 5526612
5.6128712 16.09412 72.422676 5723991
5.6143618 16.06424 72.420639 5723991
5.6173096 16.034594 72.420677 5526612
5.6197853 16.004353 72.419991 5526612
5.6220989 15.974304 72.419167 5395026
5.6235104 15.944699 72.41732 5592405
5.6245041 15.915325 72.41497 5395026
5.6258359 15.885128 72.412994 5395026
5.6267262 15.855676 72.410492 5987163
5.6275043 15.825541 72.407753 5789784
5.6282554 15.794673 72.405327 5658198
5.6042976 16.051861 72.404839 5855577
5.6052303 16.031309 72.403305 5723991
5.6060362 16.0037 72.400627 5987163
5.6065578 15.974132 72.39724 5395026
5.6076736 15.943604 72.394577 5658198
5.608881 15.913684 72.392319 5526612
5.6103363 15.884597 72.39061 5329233
5.6125946 15.85439 72.389946 5329233
5.6144981 15.824351 72.388771 5460819
5.6170006 15.794271 72.388519 5263440
5.6194892 15.764936 72.388695 5066061
5.6204996 15.73439 72.386902 5000268
5.6208754 15.704477 72.384361 5066061
5.6214733 15.674908 72.38221 5066061
5.6219225 15.644694 72.379753 5066061
5.6225061 15.614367 72.377686 5131854
5.6227655 15.584073 72.375656 5000268
5.6223383 15.568651 72.373718 4079166
5.5998273 15.875681 72.37397 4210752
5.6007299 15.852856 72.372292 5329233
5.6014595 15.823824 72.369522 5263440
5.6023445 15.794137 72.36689 5000268
5.6037273 15.763667 72.364891 5460819
5.604991 15.734392 72.362915 5263440
5.6054926 15.704396 72.360008 5197647
5.6071243 15.674369 72.359192 5000268
5.608551 15.644467 72.358307 4868682
5.6104627 15.614882 72.358253 4934475
5.6127467 15.584622 72.358978 5000268
5.6148748 15.554282 72.359932 4802889
5.6149063 15.524471 72.357605 4605510
5.6155138 15.494844 72.356323 4737096
5.5962591 15.673001 72.341911 5329233
5.5966611 15.643501 72.339149 4671303
5.5974722 15.613409 72.337273 5000268
5.5986881 15.584284 72.336159 5263440
5.5991259 15.554447 72.3339 5066061
5.5992317 15.524603 72.331314 4934475
5.5997419 15.49468 72.329559 5000268
5.7687325 20.413952 73.250542 5987163
5.7574682 20.411253 73.234222 5395026
5.760056 20.382011 73.233521 5460819
5.7613134 20.352234 73.230865 5592405
5.7624445 20.322454 73.22802 5723991
5.7638073 20.293201 73.225586 5526612
5.7652512 20.264641 73.223389 5723991
5.743124 20.408833 73.213478 5329233
5.7443976 20.380865 73.211182 5526612
5.7454453 20.351067 73.208267 5395026
5.746747 20.32119 73.205719 5723991
5.7490101 20.29151 73.204559 5592405
5.7524014 20.261482 73.204956 5658198
5.7547002 20.231869 73.20388 5658198
5.7561731 20.201841 73.201599 5592405
5.7572618 20.172447 73.19886 5789784
5.7584381 20.142941 73.196236 5395026
5.7598844 20.113348 73.194008 5723991
5.7606831 20.082726 73.191269 6316128
5.7367802 20.286755 73.186775 5131854
5.7377357 20.260656 73.184334 5789784
5.739068 20.230621 73.181854 5723991
5.7403979 20.201077 73.179436 5658198
5.7414036 20.171051 73.176498 5592405
5.7436347 20.14147 73.175407 5855577
5.7462397 20.111538 73.175186 5658198
5.7488151 20.081669 73.175163 5592405
5.7513733 20.051893 73.175133 5723991
5.7511215 20.021536 73.171249 5658198
5.7519236 19.992075 73.168892 5658198
5.7526617 19.962271 73.166405 5723991
5.753932 19.932377 73.164627 5855577
5.7547541 19.902348 73.162224 5855577
5.7556634 19.874004 73.160042 5526612
5.7326384 20.133156 73.159386 5921370
5.7336383 20.108807 73.15789 5987163
5.7347002 20.08079 73.156052 5855577
5.7357464 20.051432 73.15403 5987163
5.7356787 20.02162 73.150459 5855577
5.7358751 19.991426 73.147194 5395026
5.7368202 19.961214 73.144836 5723991
5.7386312 19.932035 73.143753 5592405
5.7412872 19.90202 73.143761 5526612
5.7439895 19.871403 73.143768 5658198
5.7465434 19.842089 73.143341 5592405
5.7477264 19.812136 73.140839 5921370
5.7490211 19.782295 73.138443 5921370
5.7502751 19.752951 73.136047 5789784
5.7513685 19.723026 73.133347 5921370
5.7527704 19.699297 73.131935 5395026
5.7281246 19.925827 73.128052 5658198
5.7291207 19.900017 73.126366 5329233
5.7301178 19.871031 73.124275 5395026
5.7309942 19.84123 73.121582 5329233
5.7321301 19.81144 73.119171 5592405
5.7332716 19.781279 73.116684 5658198
5.7346344 19.751652 73.114502 5526612
5.7375212 19.721764 73.114357 5723991
5.7403855 19.69183 73.11409 5658198
5.7423859 19.662563 73.112717 5723991
5.743042 19.632315 73.109383 5723991
5.7446365 19.602579 73.107391 5921370
5.7458911 19.572445 73.104881 5789784
5.7467909 19.543224 73.10202 5592405
5.7480631 19.518755 73.100304 6513507
5.7230911 19.739227 73.096748 5789784
5.724154 19.720053 73.095657 5526612
5.72543 19.690716 73.093498 5592405
5.7266054 19.660933 73.091042 5789784
5.727457 19.631287 73.088089 5592405
5.7290182 19.601288 73.086029 5921370
5.7300177 19.571489 73.083221 5658198
5.7328939 19.541962 73.082993 5658198
5.7357397 19.511852 73.082573 5723991
5.7378874 19.481955 73.081192 5855577
5.7389097 19.451931 73.078262 5723991
5.740406 19.422539 73.076065 5921370
5.7415676 19.392361 73.073303 5789784
5.7425494 19.363083 73.070419 5658198
5.74368 19.340372 73.068687 5395026
5.7198963 19.539267 73.06498 5526612
5.7209091 19.510309 73.062202 5921370
5.722084 19.480831 73.059525 5592405
5.7231598 19.451389 73.056656 5658198
5.7246971 19.421591 73.054352 5592405
5.7270079 19.392107 73.053192 5592405
5.73035 19.361698 73.053352 5723991
5.733407 19.331728 73.053177 5526612
5.7353582 19.302641 73.051605 5526612
5.7362871 19.272715 73.048386 5723991
5.7378969 19.243147 73.045975 5921370
5.738975 19.213099 73.042671 5460819
5.7405005 19.189693 73.041023 5921370
5.7159462 19.390402 73.037262 5658198
5.717185 19.361244 73.03463 5855577
5.7185421 19.331314 73.032104 5723991
5.7196131 19.301214 73.029152 5526612
5.7208352 19.271488 73.026474 5526612
5.7221193 19.242085 73.023911 5395026
5.7253847 19.212109 73.023941 5658198
5.7285619 19.182331 73.023712 5723991
5.730279 19.152756 73.021439 5789784
5.7316961 19.122536 73.018692 5987163
5.7328606 19.092438 73.015678 5789784
5.7342105 19.062508 73.012939 5987163
5.7357464 19.033274 73.010536 5131854
5.7113295 19.229475 73.00679 5395026
5.7124491 19.209473 73.005417 5197647
5.7136602 19.181269 73.003059 5658198
5.7144637 19.151339 72.999855 5460819
5.7159152 19.121363 72.99736 5789784
5.7173595 19.091585 72.994766 5592405
5.7189188 19.06249 72.992409 5789784
5.7223425 19.032314 72.992386 5658198
5.7252922 19.002247 72.991745 5789784
5.7267995 18.972279 72.989182 5855577
5.7279434 18.94244 72.986153 5855577
5.7292204 18.912907 72.983368 5855577
5.7306795 18.882812 72.98085 5658198
5.7317495 18.85577 72.978409 5987163
5.7073927 19.05312 72.975487 6710886
5.7084208 19.029911 72.97332 5789784
5.7097664 19.001448 72.970779 5592405
5.7110596 18.97172 72.968094 5921370
5.7124853 18.941963 72.965698 5855577
5.7137632 18.912477 72.963196 5987163
5.7168517 18.88253 72.962975 5855577
5.7199492 18.852501 72.962746 5855577
5.7225075 18.82288 72.961884 6052956
5.7237477 18.792713 72.959312 5921370
5.7246442 18.762791 72.956535 6118749
5.7260294 18.733297 72.954468 5658198
5.7269454 18.703497 72.951767 5526612
5.7282372 18.678188 72.950119 6118749
5.7034473 18.899818 72.948128 5987163
5.7047539 18.8794 72.946945 5789784
5.7057409 18.851849 72.944351 5855577
5.7067862 18.822411 72.94162 6052956
5.7078829 18.791792 72.939018 6052956
5.7091227 18.761719 72.936691 5987163
5.7103472 18.731829 72.934364 5921370
5.7125511 18.702568 72.933357 5987163
5.7155075 18.672718 72.933228 5987163
5.7175102 18.64274 72.93187 5987163
5.718503 18.612299 72.929214 5855577
5.7193952 18.582747 72.92646 6052956
5.720839 18.552898 72.924133 6184542
5.7221665 18.522505 72.921577 5855577
5.7233505 18.493385 72.919022 6184542
5.699543 18.69883 72.916267 5921370
5.7006726 18.670753 72.914009 6118749
5.7017899 18.641474 72.911697 6118749
5.7029109 18.611586 72.909378 6052956
5.7038126 18.581902 72.906723 5987163
5.704771 18.552212 72.903839 6118749
5.706811 18.522718 72.902306 5987163
5.7098246 18.492706 72.901939 6118749
5.7123833 18.462978 72.901161 6250335
5.7132802 18.433176 72.898468 6316128
5.7142906 18.403114 72.89595 6184542
5.7156792 18.372438 72.893806 6184542
5.7167521 18.343157 72.891464 6250335
5.7175751 18.314344 72.888863 6513507
5.718689 18.288153 72.886871 6710886
5.6944132 18.513922 72.885506 6184542
5.6956511 18.49032 72.884048 6381921
5.6966734 18.461082 72.881638 6118749
5.6979895 18.431385 72.879539 6052956
5.6987357 18.402155 72.876762 5921370
5.6994543 18.372328 72.87381 6052956
5.7007952 18.342136 72.871536 6052956
5.7034082 18.312283 72.870934 5987163
5.7061434 18.282459 72.870369 5987163
5.7082968 18.253925 72.869156 5987163
5.7110834 18.223684 72.8685 5987163
5.7120981 18.193039 72.865471 5855577
5.7131715 18.163904 72.862732 5987163
5.7143393 18.135996 72.860344 5460819
5.7154794 18.115765 72.859116 6513507
5.6905279 18.310408 72.854111 6250335
5.6914225 18.282118 72.851341 5855577
5.6932454 18.250782 72.849266 6052956
5.6956091 18.221544 72.848183 5921370
5.6962385 18.192329 72.844872 6250335
5.6977973 18.163195 72.842873 5921370
5.7009554 18.132673 72.842857 5987163
5.7040071 18.101835 72.84269 6052956
5.7047696 18.072933 72.839867 6052956
5.7060251 18.043762 72.837509 6118749
5.7073278 18.012541 72.834587 5855577
5.7084265 17.983091 72.83165 5921370
5.7096076 17.955732 72.829018 6118749
5.7110548 17.933496 72.827492 5131854
5.6861935 18.153261 72.826782 6184542
5.6872935 18.12977 72.825096 5921370
5.6882439 18.102383 72.822708 6052956
5.6891723 18.072771 72.819962 5855577
5.6902909 18.042133 72.817146 5921370
5.6916642 18.01132 72.814499 5723991
5.6929822 17.982565 72.81189 6052956
5.6961203 17.95331 72.811455 5987163
5.699481 17.92202 72.810997 6118749
5.700799 17.893085 72.808289 5855577
5.7021685 17.863983 72.805687 6052956
5.7033291 17.832743 72.802544 6184542
5.7045717 17.803444 72.799805 5987163
5.7056589 17.775587 72.797142 5658198
5.7069769 17.755138 72.795853 6710886
5.6815224 17.97098 72.795525 5855577
5.6827297 17.950916 72.794022 5723991
5.6840725 17.920807 72.791168 6184542
5.6852026 17.892576 72.788345 6316128
5.6865549 17.863283 72.785721 6250335
5.6876421 17.832293 72.782585 6184542
5.6889281 17.802673 72.779953 5987163
5.6926274 17.773251 72.780388 6118749
5.6952181 17.742647 72.779282 6184542
5.6963949 17.713049 72.77655 6184542
5.6985397 17.68461 72.775215 6184542
5.7004137 17.653246 72.773125 6184542
5.7015915 17.624874 72.770599 6579300
5.7025232 17.600412 72.768272 6184542
5.6774907 17.792583 72.764214 6579300
5.6786246 17.770948 72.762573 5592405
5.6798992 17.742729 72.760185 6118749
5.6807332 17.711735 72.756828 5987163
5.682776 17.681711 72.755081 6052956
5.6848526 17.653023 72.753639 5987163
5.6857171 17.622871 72.750351 5987163
5.6908569 17.593033 72.752541 5987163
5.6923504 17.563284 72.750122 5789784
5.6936331 17.533289 72.747391 6052956
5.6950111 17.503777 72.744835 5921370
5.6962051 17.473352 72.741821 6184542
5.6973529 17.444698 72.738991 5855577
5.6983681 17.420122 72.736641 5987163
5.6732893 17.614185 72.732918 5723991
5.6760273 17.591 72.733017 5921370
5.6767917 17.56214 72.729645 5987163
5.6782842 17.532515 72.727119 5723991
5.6792498 17.502504 72.723869 5855577
5.6809988 17.473053 72.721825 5921370
5.6835737 17.443151 72.720825 5789784
5.6867771 17.412916 72.720619 6184542
5.6886344 17.383272 72.718765 5921370
5.6895599 17.353615 72.715698 5987163
5.6909409 17.323473 72.713104 5921370
5.6919661 17.293755 72.709976 6052956
5.6931267 17.264511 72.707077 6184542
5.6939678 17.243824 72.705055 5789784
5.6695642 17.462959 72.705559 5921370
5.6706982 17.44113 72.703888 6052956
5.6719799 17.412683 72.701454 6250335
5.6725459 17.382343 72.697823 5855577
5.6741114 17.352568 72.695526 5592405
5.675065 17.322752 72.692398 5987163
5.6766758 17.293196 72.690063 5855577
5.679884 17.26301 72.689651 5855577
5.6830792 17.233082 72.689232 5921370
5.684783 17.203259 72.68689 5658198
5.6858373 17.173759 72.683716 5921370
5.6885791 17.143217 72.68261 6381921
5.6894064 17.11463 72.679276 6118749
5.6907206 17.09086 72.67733 5329233
5.6656628 17.284483 72.674217 5592405
5.6669102 17.261019 72.672249 5987163
5.6677265 17.23171 72.668793 5921370
5.6690826 17.202639 72.666077 5987163
5.6703272 17.17235 72.663033 5921370
5.6726913 17.142921 72.661606 5855577
5.6751065 17.11351 72.660271 5921370
5.6782436 17.083519 72.659813 5789784
5.6811385 17.053864 72.659103 5855577
5.6821346 17.02379 72.655853 5987163
5.683795 16.994127 72.653534 6052956
5.6844959 16.963741 72.649849 5921370
5.6857395 16.934944 72.647118 5526612
5.6869955 16.914303 72.645638 6447714
5.6618338 17.109837 72.642319 6118749
5.6634183 17.080927 72.640015 5723991
5.6655321 17.052246 72.638435 5592405
5.6664667 17.022692 72.635139 5789784
5.6678753 16.992769 72.632401 5921370
5.6697884 16.963488 72.630424 5789784
5.6731863 16.933081 72.63028 5855577
5.6761761 16.903393 72.629692 5789784
5.6773524 16.873997 72.626778 5921370
5.6786375 16.843887 72.623909 5987163
5.6798105 16.814224 72.620949 5658198
5.6807499 16.784725 72.617706 5460819
5.6820259 16.763973 72.616241 6052956
5.658617 16.956722 72.614296 5921370
5.6596985 16.931614 72.611816 5855577
5.6608005 16.901943 72.60865 5658198
5.6618853 16.872831 72.605621 5592405
5.6629038 16.842876 72.602394 5592405
5.6646214 16.813383 72.600182 5723991
5.6671519 16.783388 72.599007 5855577
5.6710539 16.753096 72.599655 5855577
5.6729231 16.723732 72.597679 5855577
5.6738377 16.693684 72.594292 5723991
5.675487 16.665049 72.592125 5592405
5.677557 16.634285 72.590202 5921370
5.6784501 16.606585 72.587143 5460819
5.654078 16.803555 72.584297 5723991
5.6549039 16.78089 72.581924 5526612
5.6560326 16.75271 72.579117 5723991
5.6571932 16.722607 72.57605 5526612
5.6582499 16.692524 72.57283 5723991
5.6601086 16.662601 72.570724 5526612
5.6627045 16.633621 72.569778 5658198
5.6657925 16.603498 72.569328 5789784
5.6684432 16.573757 72.568344 5526612
5.6705666 16.543774 72.56675 5855577
5.6715012 16.514555 72.563713 5789784
5.6724272 16.484297 72.560608 5526612
5.6735458 16.454523 72.557945 5723991
5.6745892 16.426662 72.555443 5395026
5.6504602 16.629293 72.552338 5460819
5.6512985 16.602581 72.549339 5921370
5.6527839 16.57258 72.546745 5592405
5.6547694 16.54343 72.545135 5723991
5.6557875 16.513102 72.542038 5526612
5.6569462 16.482941 72.539162 5723991
5.6599917 16.45392 72.539108 5723991
5.6632805 16.423756 72.539352 5658198
5.6653547 16.393713 72.537971 5658198
5.6664109 16.363861 72.535179 5592405
5.6670618 16.334206 72.53183 5460819
5.6682215 16.304201 72.529015 5658198
5.6694088 16.275677 72.526337 5921370
5.6456261 16.47024 72.521828 5263440
5.6474652 16.449879 72.521332 5592405
5.6488514 16.423161 72.519302 5592405
5.6495295 16.393322 72.515976 5658198
5.6507359 16.362749 72.513321 5592405
5.6516809 16.332945 72.510414 5658198
5.6539803 16.303726 72.509476 5592405
5.6567392 16.273333 72.508934 5526612
5.659996 16.243666 72.509148 5921370
5.6612186 16.213751 72.506844 5592405
5.6619644 16.18396 72.503906 5658198
5.6631441 16.154469 72.501534 5526612
5.6649122 16.124399 72.499901 5789784
5.6657543 16.096369 72.497253 5197647
5.666707 16.073647 72.495483 6118749
5.6416321 16.319237 72.494545 5395026
5.6426582 16.300697 72.49334 5592405
5.643548 16.272598 72.490601 5723991
5.6445284 16.242941 72.487747 5395026
5.6452875 16.213438 72.484596 5263440
5.6463089 16.183346 72.481827 5658198
5.6474524 16.153137 72.479279 5395026
5.6507292 16.123756 72.479858 5526612
5.6530094 16.093529 72.478928 5460819
5.6554608 16.063459 72.478264 5658198
5.6568646 16.034037 72.476257 5526612
5.6585493 16.004013 72.474754 5526612
5.6595268 15.974699 72.472404 5395026
5.6602526 15.944967 72.469963 5460819
5.6606984 15.915054 72.467499 5197647
5.6613836 15.885885 72.465492 5592405
5.6619463 15.861912 72.463791 5000268
5.6383014 16.121458 72.462067 5658198
5.6393251 16.092527 72.459541 5329233
5.6401548 16.063402 72.456718 5460819
5.6409545 16.032976 72.453682 5592405
5.6429749 16.003313 72.452538 5723991
5.6435852 15.973307 72.449539 5592405
5.645503 15.943666 72.448471 5526612
5.6476421 15.913706 72.447845 5395026
5.650279 15.884035 72.44838 5197647
5.6523962 15.853771 72.448395 5131854
5.653161 15.824208 72.446457 5131854
5.6537619 15.793899 72.444153 5460819
5.654254 15.763926 72.441704 5197647
5.6549077 15.734442 72.439774 5197647
5.6551542 15.704581 72.437653 5000268
5.655674 15.675239 72.436127 4934475
5.6570525 15.646402 72.436058 5000268
5.6339798 15.940258 72.431641 5395026
5.6343966 15.912569 72.428688 5592405
5.6363173 15.8827 72.427597 5460819
5.6370754 15.853387 72.425117 5263440
5.6376009 15.823462 72.42263 5329233
5.6380148 15.79377 72.420158 5329233
5.6385016 15.763985 72.417793 5263440
5.6407747 15.734364 72.418137 5263440
5.6428823 15.703809 72.418228 5066061
5.644413 15.673647 72.4179 5197647
5.6465654 15.643835 72.418922 4737096
5.6476307 15.61388 72.418236 4737096
5.6480093 15.583839 72.416428 5000268
5.6478462 15.553817 72.413803 5066061
5.6482878 15.523735 72.412277 4934475
5.6485496 15.494567 72.410507 5131854
5.6498632 15.464872 72.410332 5263440
5.6282859 15.749268 72.400642 4539717
5.6300669 15.731314 72.401497 5658198
5.630682 15.703865 72.399574 5263440
5.6309729 15.673389 72.396835 5131854
5.6316504 15.643724 72.395004 5131854
5.6316409 15.614183 72.392509 5066061
5.632226 15.584238 72.391006 5066061
5.6322594 15.554116 72.388626 4868682
5.6332512 15.524126 72.387886 4934475
5.6347919 15.493731 72.388184 4868682
5.6365967 15.464131 72.388962 5000268
5.6240745 15.523676 72.372971 5263440
5.6242537 15.493103 72.370918 4605510
5.7935381 20.440777 73.290306 5197647
5.7948241 20.41165 73.287598 5263440
5.7959671 20.381659 73.284538 5526612
5.7972374 20.352798 73.281845 5197647
5.7985201 20.327919 73.279816 5526612
5.7788434 20.410603 73.264336 5395026
5.7809439 20.380852 73.262863 5592405
5.7844486 20.350697 73.263321 5592405
5.7875729 20.320442 73.263229 5658198
5.7897906 20.290901 73.261963 5329233
5.7909355 20.261354 73.259178 5789784
5.7922592 20.231821 73.256645 5592405
5.7935934 20.20224 73.25412 5723991
5.7946234 20.177153 73.251839 5460819
5.7701364 20.374754 73.246681 5526612
5.7713017 20.349249 73.24453 5000268
5.7726026 20.320332 73.242058 5526612
5.7738791 20.290335 73.239395 5592405
5.7753716 20.260532 73.237061 5395026
5.7770576 20.231047 73.235077 5658198
5.779089 20.200647 73.233475 5658198
5.7822213 20.170837 73.233521 5592405
5.7845216 20.141382 73.232468 5395026
5.7852864 20.111223 73.229172 5723991
5.7869024 20.081196 73.227089 5723991
5.7879176 20.051544 73.224373 5526612
5.7890868 20.02243 73.222481 5592405
5.7900753 19.992006 73.220261 5789784
5.7663679 20.223654 73.219002 4802889
5.7664833 20.199259 73.21563 5000268
5.7672982 20.169561 73.212471 5789784
5.7686939 20.140079 73.210159 5723991
5.7701049 20.110291 73.207817 5789784
5.7708683 20.081009 73.204865 5855577
5.7726731 20.051079 73.20372 5723991
5.7749348 20.020859 73.203239 5987163
5.7777796 19.991066 73.20359 5658198
5.7802706 19.961168 73.203453 5921370
5.7812481 19.931128 73.201263 5723991
5.7823367 19.90188 73.199318 5987163
5.7833414 19.871885 73.196846 6052956
5.7844858 19.841217 73.194138 5789784
5.7843518 19.812258 73.189957 6118749
5.7856102 19.785023 73.187874 6710886
5.7615576 20.039001 73.18734 6052956
5.7627258 20.018976 73.186577 5329233
5.7636175 19.990236 73.184425 5723991
5.7646341 19.960554 73.182327 5789784
5.7657738 19.930357 73.180336 5658198
5.7666159 19.900566 73.177994 5921370
5.7675705 19.870485 73.175537 5921370
5.7690182 19.84116 73.173431 5855577
5.7708406 19.810951 73.1717 5855577
5.7739768 19.780964 73.171745 5921370
5.7761517 19.751627 73.170601 5789784
5.7777672 19.721239 73.168564 5921370
5.7786484 19.691605 73.165649 5526612
5.7799435 19.66222 73.163322 5526612
5.7811484 19.633602 73.16098 6052956
5.7824554 19.61318 73.159904 5789784
5.7567682 19.831175 73.155663 5921370
5.7581587 19.809011 73.154465 5723991
5.7593784 19.780083 73.152092 5526612
5.7605186 19.750565 73.149536 5921370
5.761682 19.720846 73.146973 5723991
5.7629337 19.690945 73.144493 5987163
5.7656798 19.661287 73.144073 5723991
5.7685156 19.631378 73.143738 5789784
5.770956 19.600662 73.142754 5921370
5.771246 19.571465 73.139091 5789784
5.7727466 19.541853 73.137009 5789784
5.7741337 19.511826 73.134666 5723991
5.7749748 19.482649 73.131561 5789784
5.7764635 19.453386 73.129158 5789784
5.7780871 19.430857 73.12793 5329233
5.7539015 19.656443 73.12748 5526612
5.7548742 19.629642 73.125053 5658198
5.7553129 19.600895 73.121635 5592405
5.7561083 19.570446 73.118462 5723991
5.7569175 19.540922 73.115433 5723991
5.758389 19.510551 73.113152 5592405
5.7606812 19.480978 73.112015 5855577
5.7639074 19.451159 73.112061 5723991
5.7672281 19.421303 73.112099 5855577
5.768611 19.391424 73.109467 5987163
5.7699986 19.361845 73.106865 5855577
5.7715068 19.332592 73.104477 5723991
5.7725534 19.303673 73.101524 5921370
5.7738419 19.28194 73.099968 6118749
5.7493658 19.478773 73.096329 5723991
5.7503653 19.450855 73.093666 6118749
5.7520447 19.420698 73.091614 5723991
5.7530212 19.391005 73.088638 5789784
5.7541714 19.361118 73.085777 5855577
5.7557425 19.330917 73.083359 5855577
5.7581425 19.301155 73.082069 5855577
5.7616568 19.271189 73.082214 5987163
5.763546 19.241879 73.080246 5921370
5.764926 19.212315 73.077477 5789784
5.7664452 19.181854 73.07473 5789784
5.7674894 19.152349 73.071503 5658198
5.7690549 19.1238 73.069122 5658198
5.7705255 19.104027 73.067993 5526612
5.7450657 19.296968 73.064117 5592405
5.7463913 19.270245 73.061722 5855577
5.7479849 19.241058 73.059265 5658198
5.7492018 19.211151 73.056175 5789784
5.7506342 19.180655 73.053284 6052956
5.7535009 19.15134 73.052521 5789784
5.7569208 19.121456 73.052406 5658198
5.7599735 19.091965 73.051865 5987163
5.7615747 19.062349 73.049339 5460819
5.7628279 19.032396 73.046326 5658198
5.7641439 19.003 73.043571 5921370
5.7657032 18.973391 73.041168 5723991
5.7416258 19.149172 73.036133 6184542
5.7433405 19.120546 73.03392 5723991
5.7446942 19.090813 73.03112 5855577
5.74578 19.0611 73.028061 5921370
5.7472658 19.031267 73.02552 5987163
5.7485971 19.001577 73.022797 5921370
5.7519178 18.971458 73.022644 5921370
5.7548685 18.941685 73.022057 5855577
5.7563496 18.911808 73.019508 6118749
5.7576857 18.8818 73.016747 5592405
5.7590575 18.852043 73.014069 5789784
5.76019 18.822853 73.011154 5921370
5.7614317 18.795412 73.008629 5263440
5.7368422 18.990208 73.005417 6250335
5.7380495 18.97052 73.004028 5789784
5.7392397 18.941231 73.001144 5592405
5.7406173 18.911137 72.998383 5855577
5.7421093 18.881374 72.995834 5723991
5.7432184 18.851055 72.99276 5921370
5.7451487 18.821486 72.990974 5789784
5.7485065 18.791548 72.991028 5789784
5.7508383 18.762026 72.989861 5921370
5.7521601 18.732294 72.987518 5987163
5.7532883 18.702332 72.985054 6250335
5.7539506 18.672522 72.982002 6250335
5.7553778 18.642946 72.979492 6316128
5.7571154 18.612604 72.976967 5723991
5.7327332 18.813793 72.973785 5921370
5.7340155 18.790474 72.97216 6118749
5.7352414 18.761261 72.969788 6052956
5.7364483 18.731062 72.9674 6118749
5.737288 18.701286 72.964607 5987163
5.7385559 18.671017 72.962288 5987163
5.7408333 18.641445 72.961273 6052956
5.7439871 18.61194 72.960899 6052956
5.7472286 18.582521 72.960365 6316128
5.7484884 18.552677 72.957657 6447714
5.7494926 18.522533 72.955116 6184542
5.7509823 18.492319 72.953194 6118749
5.7518296 18.46312 72.950546 6184542
5.7533302 18.43549 72.948662 6513507
5.7291832 18.637459 72.946045 5987163
5.7303391 18.611429 72.944077 6645093
5.731679 18.58098 72.941513 6250335
5.7328253 18.551123 72.938911 5987163
5.7339101 18.521437 72.936188 6184542
5.7352505 18.491772 72.933754 5921370
5.7367287 18.462122 72.931496 6052956
5.7397795 18.431942 72.931137 6250335
5.7420311 18.402489 72.929947 6052956
5.7436657 18.372412 72.928062 6052956
5.7445521 18.34218 72.925354 6250335
5.7453957 18.312483 72.922668 6118749
5.7466402 18.281767 72.920227 6447714
5.7478065 18.253298 72.917931 6447714
5.7488375 18.229998 72.916145 6316128
5.7243643 18.451094 72.914421 6316128
5.7255349 18.429127 72.912971 6381921
5.7266545 18.400801 72.910789 6316128
5.7275562 18.372042 72.908295 5987163
5.7286978 18.34144 72.905861 5921370
5.7301397 18.311293 72.903854 5987163
5.7306633 18.281673 72.900665 6118749
5.7327137 18.252045 72.899307 6184542
5.7361927 18.221527 72.899574 5921370
5.7390108 18.192913 72.899277 6118749
5.740593 18.162813 72.897278 6316128
5.7417002 18.131634 72.894562 6250335
5.742548 18.102882 72.89183 5987163
5.7438922 18.074116 72.889603 6381921
5.745285 18.051716 72.888107 6842472
5.7200751 18.243299 72.882698 5855577
5.7211146 18.220219 72.880913 6184542
5.7233653 18.191031 72.879707 6250335
5.7247992 18.160913 72.877335 6184542
5.7256899 18.131834 72.87439 5789784
5.7270703 18.102276 72.872116 6118749
5.730073 18.071321 72.871773 5921370
5.7328405 18.041878 72.871002 6052956
5.7345829 18.012707 72.868881 6250335
5.7358418 17.983004 72.866081 6184542
5.7372179 17.953573 72.863525 6052956
5.7381659 17.922121 72.860146 5723991
5.7395945 17.893448 72.857773 5987163
5.7409077 17.87141 72.85614 6513507
5.7164249 18.071228 72.854469 5987163
5.7176399 18.041763 72.85186 6118749
5.7189884 18.011139 72.849037 6184542
5.7200708 17.98213 72.846153 6250335
5.7212319 17.952349 72.843254 6250335
5.722806 17.921049 72.840576 5987163
5.725646 17.891783 72.839775 5921370
5.7288561 17.862043 72.839378 5921370
5.7303524 17.832571 72.836906 5987163
5.7315216 17.803297 72.834061 5921370
5.7328215 17.772911 72.831223 6184542
5.7346954 17.745981 72.82962 6052956
5.736743 17.718897 72.828224 6184542
5.7122416 17.890079 72.822426 5921370
5.7136688 17.861172 72.819908 5987163
5.7145281 17.831249 72.816574 6052956
5.7162476 17.801931 72.814423 6184542
5.7172775 17.771452 72.811249 6118749
5.7198539 17.74194 72.810219 6250335
5.724371 17.71217 72.811623 5921370
5.726274 17.682377 72.809723 6118749
5.7276392 17.652956 72.80719 5921370
5.7285261 17.622835 72.803963 5987163
5.7301483 17.593227 72.801743 5723991
5.7312355 17.563463 72.798866 6118749
5.7320313 17.538696 72.79631 5987163
5.7084556 17.731432 72.794296 6184542
5.709609 17.711426 72.792862 5921370
5.7108941 17.680878 72.7901 6118749
5.7121401 17.651716 72.787521 6118749
5.7130938 17.621855 72.7845 6052956
5.7138691 17.591629 72.781189 6052956
5.7169051 17.562164 72.780754 6184542
5.7192974 17.531992 72.779381 6184542
5.7221975 17.502388 72.778732 6052956
5.722868 17.472292 72.775238 6052956
5.7243938 17.442562 72.772896 6184542
5.7253408 17.412989 72.769882 6381921
5.7267199 17.38315 72.767372 6052956
5.7276306 17.354502 72.764351 5789784
5.703927 17.558899 72.764015 5658198
5.7050972 17.531395 72.761559 6381921
5.7060628 17.501348 72.758499 5987163
5.7077465 17.471771 72.756386 6250335
5.708056 17.441956 72.752457 6250335
5.7097602 17.412033 72.750221 6184542
5.7116132 17.382536 72.748306 5921370
5.7150655 17.352634 72.74836 6118749
5.7172246 17.32295 72.746658 6052956
5.7196684 17.293335 72.745354 6052956
5.7213902 17.263435 72.743073 5789784
5.7223639 17.233917 72.739906 5987163
5.7238259 17.204254 72.737305 6381921
5.7251444 17.185719 72.736176 5855577
5.6996899 17.378475 72.732368 5789784
5.7006559 17.350422 72.729576 6184542
5.701755 17.32119 72.726662 5789784
5.7043095 17.291527 72.725494 6052956
5.705554 17.26203 72.722672 5921370
5.7076259 17.232285 72.720871 5921370
5.7107172 17.202436 72.72036 5921370
5.7133856 17.172722 72.719322 5921370
5.7149429 17.142941 72.716858 6381921
5.7161713 17.113138 72.713966 5921370
5.7172422 17.082752 72.710785 5987163
5.7183247 17.053556 72.707802 5987163
5.7196321 17.02599 72.705345 5592405
5.6956263 17.227598 72.70475 7237230
5.6970782 17.201815 72.702744 5987163
5.6978359 17.1716 72.699158 6118749
5.6994753 17.141867 72.696747 5921370
5.7001371 17.112028 72.693024 5921370
5.7016134 17.082312 72.690376 5855577
5.7039747 17.052635 72.688904 5789784
5.7072582 17.022552 72.688599 5789784
5.7096357 16.993044 72.687202 5921370
5.7110949 16.9631 72.68457 5987163
5.7121458 16.933306 72.681435 5987163
5.7141638 16.904793 72.679756 5987163
5.715766 16.87557 72.677429 5987163
5.7170458 16.856848 72.67627 5789784
5.6918526 17.049566 72.672478 6184542
5.6930933 17.021311 72.669823 5658198
5.6943722 16.991215 72.666939 6118749
5.6954017 16.962278 72.663902 5921370
5.6964426 16.93228 72.660721 5723991
5.6990461 16.902187 72.659576 5921370
5.7018995 16.872822 72.658859 5855577
5.7051187 16.8433 72.658607 5921370
5.707365 16.813082 72.656975 5855577
5.7086015 16.783001 72.654037 5855577
5.7096453 16.753283 72.650894 5921370
5.7106333 16.723965 72.647728 6052956
5.7121825 16.695803 72.64547 5526612
5.6868806 16.88863 72.641602 6052956
5.6881313 16.870102 72.640427 5855577
5.689929 16.840961 72.638367 5921370
5.6915317 16.812313 72.636108 6118749
5.6928859 16.782328 72.633316 6052956
5.6941319 16.752459 72.630394 5723991
5.6966691 16.722736 72.629196 5921370
5.6998224 16.692732 72.628761 5987163
5.7022696 16.663313 72.627495 5789784
5.7036247 16.633385 72.62471 5855577
5.7043629 16.602999 72.621048 5789784
5.7055788 16.573645 72.618164 5921370
5.7072763 16.547585 72.616425 5723991
5.6831017 16.739737 72.613968 5395026
5.6843596 16.721117 72.612778 6184542
5.6854305 16.692289 72.609779 5855577
5.6866884 16.661928 72.606781 5723991
5.6878004 16.632338 72.603722 5855577
5.6887331 16.602186 72.600319 5723991
5.6904125 16.572908 72.598053 5855577
5.6940823 16.542313 72.598282 6052956
5.6971908 16.512913 72.598 5855577
5.6984291 16.483231 72.595207 5789784
5.7006946 16.453266 72.593719 5987163
5.701683 16.423462 72.590576 6118749
5.7029848 16.39459 72.587982 5855577
5.7042689 16.367004 72.585564 5395026
5.6797791 16.562851 72.582169 6052956
5.6807575 16.540844 72.580231 5921370
5.681426 16.511925 72.576981 5526612
5.6825676 16.482052 72.574188 5789784
5.685009 16.452143 72.572998 5723991
5.6861115 16.422668 72.570068 5921370
5.6879969 16.3929 72.568115 5855577
5.69133 16.363207 72.568062 5789784
5.6945682 16.333149 72.567825 5658198
5.6957579 16.303291 72.565018 5921370
5.6966429 16.273418 72.562317 5658198
5.6975079 16.243565 72.559753 5987163
5.6981492 16.213661 72.556885 5855577
5.6989307 16.184757 72.554337 5592405
5.6997132 16.16184 72.552528 5263440
5.675333 16.386517 72.550583 5723991
5.6776447 16.360622 72.549759 6118749
5.6786995 16.332844 72.547005 5921370
5.6800098 16.302845 72.544258 5789784
5.6810455 16.272682 72.541275 5658198
5.6820002 16.242918 72.538734 5526612
5.6840782 16.213036 72.537811 5855577
5.6865182 16.183075 72.537369 5921370
5.6892557 16.152813 72.537285 5723991
5.6904583 16.123158 72.535217 5658198
5.6912937 16.093407 72.53273 5460819
5.6921101 16.063639 72.530525 5526612
5.6939321 16.033457 72.529816 5395026
5.6946278 16.004137 72.52758 5526612
5.695097 15.975388 72.525093 5263440
5.6959658 15.957154 72.524315 6908265
5.6713467 16.231817 72.522964 5987163
5.6723752 16.211054 72.521759 5723991
5.6730318 16.182043 72.51902 5855577
5.6738787 16.152256 72.516304 5921370
5.6746902 16.122879 72.513451 5723991
5.6755829 16.092676 72.510574 5592405
5.6767411 16.062527 72.508194 5526612
5.679307 16.033319 72.50843 5460819
5.6811123 16.003119 72.507759 5329233
5.68291 15.973139 72.50721 5395026
5.6850624 15.943391 72.507164 5329233
5.6864929 15.913085 72.506012 5592405
5.6872244 15.883049 72.50386 5526612
5.6879334 15.853252 72.501778 5460819
5.6883059 15.823428 72.499382 5263440
5.6886482 15.792728 72.496902 5197647
5.6892042 15.762819 72.494804 5658198
5.689846 15.734102 72.493011 5263440
5.6905313 15.7134 72.492249 5263440
5.6675968 16.031199 72.491104 5855577
5.6680241 16.002405 72.48806 5723991
5.6686363 15.972318 72.485611 5066061
5.6697254 15.942172 72.484093 5131854
5.6709366 15.913099 72.482834 5329233
5.6716318 15.883052 72.480675 5263440
5.6719804 15.85293 72.477982 5395026
5.6733871 15.823546 72.477051 5197647
5.6759372 15.793253 72.478035 5263440
5.6774225 15.763284 72.47757 5131854
5.6787591 15.733204 72.476723 5263440
5.6806927 15.703038 72.476707 5263440
5.6812835 15.673485 72.474922 5395026
5.681694 15.643476 72.472977 5329233
5.6819878 15.613901 72.470917 5263440
5.6824827 15.583941 72.469177 5131854
5.6825314 15.553415 72.466805 5395026
5.6841421 15.523996 72.466545 5460819
5.6846704 15.494335 72.464409 5592405
5.6626754 15.816813 72.460068 5723991
5.6640568 15.792257 72.459541 5197647
5.6641884 15.762543 72.456917 4737096
5.6643896 15.732872 72.454811 4802889
5.6648893 15.702931 72.453133 5197647
5.6652031 15.672957 72.450951 5197647
5.6659546 15.643246 72.449364 5263440
5.6664138 15.613304 72.447388 5460819
5.6678438 15.583328 72.446976 5395026
5.6691651 15.553407 72.446587 5329233
5.6713676 15.523108 72.447533 5066061
5.6728182 15.493589 72.447273 5263440
5.6741619 15.463457 72.446602 5592405
