# .PCD v0.7 - Point Cloud Data file format
VERSION 0.7
FIELDS x y z
SIZE 4 4 4
TYPE F F F
COUNT 1 1 1
WIDTH 1524
HEIGHT 1
VIEWPOINT 0 0 0 1 0 0 0
POINTS 1524
DATA ascii
1.3278079 -0.19208093 2.3901415
1.3283329 -0.22282903 2.3908515
1.3291299 -0.2524786 2.3900023
1.330189 -0.28070271 2.3879592
1.3305054 -0.30186173 2.3799734
1.3361709 0.038197551 2.3588099
1.3342309 0.016820924 2.3584332
1.3318064 -0.012776762 2.3583751
1.3298059 -0.041557755 2.3593285
1.3280077 -0.07238774 2.3600726
1.32657 -0.10295603 2.3599455
1.325593 -0.13219786 2.3599477
1.325027 -0.16146299 2.3600776
1.3249083 -0.19210796 2.3603609
1.3252916 -0.22282895 2.3608007
1.3260772 -0.2523753 2.3602686
1.3273299 -0.28191218 2.3594122
1.3289478 -0.30928203 2.3586059
1.335453 0.036075693 2.3341925
1.3336284 0.016707236 2.3292031
1.3310521 -0.012638729 2.3287439
1.3287766 -0.042185001 2.3287578
1.3268144 -0.072502792 2.3294237
1.3252087 -0.10305889 2.3292608
1.3241041 -0.13202253 2.3301637
1.3233922 -0.1615223 2.3306353
1.3231146 -0.19240937 2.3305159
1.3233206 -0.22283737 2.3299201
1.3240204 -0.25197196 2.3297307
1.3252778 -0.28186759 2.3297753
1.3271286 -0.31159705 2.3306196
1.3283849 -0.32994795 2.3286355
1.3336031 0.011779393 2.3046198
1.3315938 -0.012876926 2.2986414
1.3291204 -0.042079005 2.2994518
1.3269451 -0.072673015 2.2991478
1.3251598 -0.10323796 2.2989521
1.3238368 -0.13270633 2.2998538
1.3229609 -0.16169842 2.3002324
1.322521 -0.19205642 2.3001008
1.3225868 -0.22299695 2.2994146
1.3231835 -0.25243437 2.29987
1.3243282 -0.28199202 2.3004787
1.3260677 -0.31202748 2.3005085
1.32742 -0.33035424 2.3018141
1.3322144 -0.019020731 2.2773438
1.3305566 -0.043577351 2.271647
1.3285174 -0.072151467 2.2695413
1.3265798 -0.10269782 2.2686553
1.3249948 -0.13245392 2.26931
1.3238521 -0.1619931 2.2701583
1.3232186 -0.1926152 2.2702844
1.3231063 -0.22329912 2.2705479
1.3235877 -0.25275621 2.2696347
1.3245621 -0.28231096 2.2701719
1.3259568 -0.30972561 2.2717226
1.3270359 -0.32814199 2.281846
1.3312566 -0.055733278 2.2525644
1.3301122 -0.075443484 2.2488782
1.3286798 -0.10396582 2.2439325
1.3273501 -0.13398105 2.2404811
1.3261368 -0.16241314 2.2403648
1.3252807 -0.19208385 2.2406926
1.3249829 -0.22275656 2.2403853
1.3252509 -0.25304803 2.2398849
1.3256922 -0.28095391 2.2441442
1.3262377 -0.30274242 2.2509589
1.3279476 -0.16520046 2.2229242
1.3271601 -0.19206923 2.222363
1.3266728 -0.22279952 2.2225258
1.3265212 -0.24553074 2.2240202
1.37481 0.077588253 2.5839002
1.37392 0.046225365 2.5872138
1.3728971 0.016932881 2.5886791
1.3720748 -0.012580007 2.5901313
1.3711643 -0.041783314 2.5904212
1.3704302 -0.07170707 2.5906293
1.3698733 -0.10144277 2.5906239
1.3696337 -0.13129751 2.5908976
1.3693016 -0.16086043 2.5899398
1.3691568 -0.18986754 2.5887566
1.3691361 -0.21843466 2.5870998
1.3687887 -0.24137488 2.5838976
1.3757849 0.18649721 2.552963
1.3749993 0.16437863 2.5581694
1.3736389 0.13604122 2.5621872
1.3722534 0.10660859 2.5654311
1.3707407 0.077322878 2.5671606
1.3693137 0.047577169 2.5685105
1.3676946 0.017779959 2.5682101
1.3663156 -0.011986447 2.5680082
1.3651891 -0.041733567 2.5679107
1.3643289 -0.071473725 2.5679233
1.3637486 -0.10122014 2.5680518
1.3634615 -0.13098685 2.5683014
1.3634501 -0.16093303 2.5685587
1.3637791 -0.19133386 2.5690014
1.3644872 -0.22167125 2.5697246
1.3648026 -0.25205961 2.5677838
1.3651919 -0.28100327 2.5650673
1.365716 -0.31028137 2.5615041
1.3659203 -0.33571598 2.5562372
1.3759382 0.24511082 2.5230525
1.3750029 0.22424228 2.5300508
1.3733897 0.19671743 2.5358174
1.3709393 0.16753146 2.5368872
1.368495 0.1372834 2.5375829
1.3659792 0.10700343 2.536983
1.363796 0.076773867 2.5369773
1.3621442 0.047652353 2.5380695
1.3605509 0.017632997 2.5386717
1.3590229 -0.012035213 2.5384207
1.3577652 -0.041679863 2.5382771
1.356792 -0.071314141 2.5382473
1.3561189 -0.10095228 2.5383379
1.3556807 -0.13144238 2.5382571
1.3558228 -0.16243856 2.5392437
1.3560956 -0.19275244 2.5394399
1.3568053 -0.22257358 2.5400841
1.3572488 -0.25213036 2.5383458
1.3586321 -0.28242138 2.5388732
1.360518 -0.3125658 2.5399873
1.3620443 -0.3422249 2.5382195
1.3632298 -0.37036639 2.5339515
1.3637116 -0.39371625 2.5269172
1.3754864 0.27872598 2.4950452
1.3742781 0.25677025 2.5042031
1.3715479 0.22849971 2.506681
1.3685091 0.19918703 2.5068755
1.3654904 0.16886279 2.5068371
1.3628349 0.13899116 2.5075064
1.3603392 0.10910151 2.5079708
1.3577356 0.077726163 2.5073645
1.3555865 0.046764687 2.5076575
1.3538406 0.017484402 2.5081477
1.3523085 -0.011744618 2.5084758
1.3510718 -0.0416434 2.5091071
1.3499823 -0.071182966 2.5090375
1.3491273 -0.10142171 2.5087781
1.348829 -0.13227165 2.5096049
1.348695 -0.16256608 2.5096235
1.3489459 -0.19242798 2.509814
1.3493745 -0.22191085 2.5092633
1.3501344 -0.2516892 2.5085788
1.3516552 -0.28161308 2.509516
1.3534553 -0.31200546 2.5098095
1.3553643 -0.34180576 2.5089862
1.3581161 -0.37252006 2.5098858
1.3605459 -0.40156201 2.5082631
1.3617384 -0.42636463 2.5011082
1.3751397 0.30583072 2.4640508
1.3738766 0.2869705 2.4740732
1.370708 0.25832507 2.476819
1.3671973 0.22870947 2.4765539
1.3638401 0.19800043 2.4771905
1.3606791 0.16842225 2.4770648
1.3577709 0.13871349 2.4775338
1.3550162 0.10852287 2.4778728
1.352479 0.078535073 2.4780526
1.3500648 0.047907725 2.4778714
1.3479929 0.017341875 2.4781096
1.3462727 -0.012506386 2.4784517
1.3449059 -0.041625705 2.4789734
1.3436935 -0.071079113 2.4788644
1.3427839 -0.10186961 2.4788837
1.3422506 -0.13267696 2.4790425
1.3421211 -0.16218001 2.4793358
1.3423252 -0.19152948 2.4795289
1.3427415 -0.22134241 2.4789257
1.3438318 -0.2510654 2.4796727
1.3451705 -0.28147569 2.4794388
1.3469415 -0.31100476 2.4794955
1.349297 -0.34148923 2.4800076
1.3518298 -0.37103212 2.4796784
1.3549945 -0.40203187 2.4798183
1.3583405 -0.43195283 2.4795203
1.360178 -0.4556734 2.473278
1.3739138 0.31103209 2.443218
1.3711829 0.28811812 2.4467368
1.3672867 0.25809455 2.4464149
1.3635957 0.2278517 2.4470444
1.3600621 0.19795619 2.4472165
1.356698 0.16840261 2.4470558
1.3536048 0.13814484 2.4481571
1.3505738 0.10854221 2.4475284
1.3479075 0.079205573 2.4478521
1.3453975 0.047752541 2.4487197
1.3430927 0.017205877 2.4485538
1.3411164 -0.012231108 2.4481838
1.3399267 -0.040921085 2.4507506
1.3391321 -0.070462994 2.4539628
1.3384309 -0.10117768 2.4557717
1.337872 -0.13249491 2.4563034
1.3374345 -0.16249909 2.4552288
1.3371592 -0.19209799 2.452919
1.3370869 -0.22174972 2.4494963
1.3381281 -0.25199085 2.4498889
1.3395679 -0.28241998 2.4499676
1.3414557 -0.31324014 2.4497404
1.3438041 -0.34275255 2.4499893
1.3465228 -0.37300122 2.4494894
1.3496959 -0.40148491 2.4502692
1.3532586 -0.43192741 2.4497952
1.3571389 -0.46166083 2.4496131
1.3588946 -0.48283899 2.441427
1.3724661 0.31483337 2.414861
1.3688745 0.28792799 2.4171016
1.3647559 0.25777721 2.4161599
1.3609223 0.2275676 2.4175134
1.3571377 0.19764605 2.4169216
1.3536301 0.16773774 2.4176388
1.3502929 0.1379793 2.4179213
1.3470745 0.10829014 2.4171576
1.344312 0.078435346 2.4188602
1.3415422 0.047853556 2.4185925
1.3395023 0.019174773 2.4209976
1.3386593 -0.0063065034 2.4288919
1.3342927 -0.23363452 2.4315393
1.3343887 -0.25572598 2.4270627
1.33477 -0.28323904 2.4207482
1.3365319 -0.31198433 2.4202743
1.3388901 -0.34262162 2.4196696
1.3418279 -0.37228754 2.4203143
1.3451962 -0.40326956 2.4198089
1.348834 -0.43208241 2.4200971
1.3529356 -0.46186671 2.4201574
1.3567593 -0.48966712 2.4178467
1.3713493 0.31526962 2.3858256
1.3674996 0.28806835 2.387054
1.3632233 0.25759158 2.3862696
1.3592184 0.22761317 2.3874736
1.355263 0.19744195 2.387022
1.3515625 0.16757469 2.3875973
1.3480411 0.13777575 2.3879886
1.3446755 0.10809802 2.387218
1.3417301 0.07872624 2.388968
1.3390508 0.050039206 2.389961
1.3381321 0.029467778 2.4009118
1.3322823 -0.2921356 2.3998151
1.3327405 -0.31335032 2.3918777
1.3348479 -0.3419418 2.3900476
1.3377998 -0.3720713 2.3901243
1.3412631 -0.40251732 2.3901129
1.3452191 -0.43299979 2.3903952
1.3493812 -0.46280274 2.3897376
1.3539727 -0.49226788 2.3901827
1.3565385 -0.51179624 2.3842506
1.3706689 0.31246218 2.3572028
1.3671019 0.2879529 2.3566217
1.3627429 0.25754517 2.3567142
1.3585372 0.2273179 2.3569629
1.3544886 0.19734909 2.3574843
1.3505647 0.167117 2.357229
1.3469443 0.13784871 2.3581867
1.3434222 0.10796819 2.3576732
1.3401818 0.078306995 2.3581946
1.3377337 0.054257896 2.3591256
1.3306799 -0.32186615 2.3676424
1.3317046 -0.34161305 2.3604228
1.3346264 -0.37175441 2.3599513
1.3381732 -0.40208712 2.3605151
1.3421681 -0.43275619 2.3602409
1.3464367 -0.46233723 2.3599746
1.3511236 -0.49180803 2.3604438
1.3548331 -0.51493871 2.3584306
1.3703878 0.30744186 2.3336592
1.367732 0.28735173 2.3265767
1.3634369 0.25795656 2.326962
1.3590651 0.22724737 2.3267813
1.354943 0.19767419 2.3274169
1.3508751 0.16743194 2.327415
1.3470087 0.13742325 2.3276966
1.3433957 0.10810052 2.3282323
1.339946 0.078191057 2.3279157
1.3369553 0.050328922 2.3270102
1.3297708 -0.34443009 2.3307109
1.332428 -0.37163264 2.330132
1.3359666 -0.40205789 2.3305004
1.3399875 -0.43260252 2.3302927
1.3444874 -0.46332395 2.3299894
1.3493047 -0.49309579 2.3307872
1.3533258 -0.51716149 2.329217
1.3683453 0.28113681 2.3009663
1.3652084 0.25739062 2.2968941
1.3609509 0.22798692 2.2969742
1.3565753 0.19722788 2.2972271
1.352494 0.16764125 2.2973306
1.3484623 0.13766249 2.2977369
1.3446341 0.10772136 2.2980795
1.3411107 0.078558557 2.298074
1.3375709 0.047380917 2.2982721
1.335026 0.020994473 2.2938771
1.3335404 0.00050276751 2.2843909
1.3286221 -0.34507117 2.2994184
1.3312435 -0.37171403 2.3006322
1.334681 -0.40184516 2.3000853
1.3387456 -0.43266681 2.3006413
1.3432338 -0.46328214 2.2998919
1.3481085 -0.49345279 2.3005826
1.3522363 -0.51758724 2.299813
1.3667014 0.25122878 2.2728536
1.3638091 0.22671539 2.2676792
1.3597882 0.19783828 2.2667785
1.355453 0.16764909 2.267417
1.3513298 0.13781427 2.2678366
1.3474638 0.10828841 2.2675729
1.3435726 0.077979289 2.2682357
1.3399334 0.047335237 2.2683978
1.3365729 0.016807782 2.2683873
1.3339994 -0.010916989 2.2657647
1.3324227 -0.035365731 2.2583439
1.3269806 -0.32216671 2.2619205
1.3283463 -0.34214556 2.2702081
1.3311558 -0.37227678 2.2704403
1.3345137 -0.4022572 2.2700617
1.3385379 -0.43330109 2.2706351
1.3428607 -0.4629893 2.2703302
1.3476129 -0.49271175 2.2699363
1.3516099 -0.51615775 2.2708881
1.3654041 0.21773809 2.2471099
1.3633187 0.19422422 2.2394533
1.3597693 0.16685823 2.2375872
1.3557427 0.13750646 2.2371306
1.351495 0.10712899 2.2378376
1.3474324 0.076578438 2.2383702
1.3437674 0.046224847 2.2377918
1.3401196 0.016077746 2.2388036
1.3369796 -0.013091682 2.2389994
1.3342092 -0.042409629 2.2384799
1.3322413 -0.070176303 2.2350121
1.3305662 -0.09978345 2.2305725
1.3293893 -0.12532799 2.2269235
1.3265543 -0.2656033 2.2268593
1.3268359 -0.28690642 2.2313735
1.3276262 -0.3140226 2.2390101
1.3295155 -0.34245235 2.240207
1.3321478 -0.37229994 2.2401834
1.3354778 -0.40322319 2.2403836
1.3392689 -0.43319869 2.2401829
1.3435242 -0.46320149 2.2404475
1.3481321 -0.49244374 2.2399518
1.3514507 -0.51302117 2.2436385
1.3628995 0.16149063 2.2167792
1.360425 0.13397112 2.2102187
1.3570173 0.10567645 2.2079325
1.3531203 0.075779296 2.2073145
1.3490896 0.045925327 2.2081316
1.3453531 0.016308634 2.2087531
1.3420815 -0.013280177 2.2082703
1.3390579 -0.042602871 2.2080674
1.3360436 -0.072513297 2.2092619
1.3335054 -0.1029307 2.2097692
1.3314767 -0.13362679 2.209578
1.3302178 -0.16269685 2.2077701
1.3292358 -0.19240953 2.2069383
1.3285894 -0.22238481 2.2073367
1.3283682 -0.25353473 2.2090282
1.3288174 -0.28353345 2.2103062
1.3300061 -0.31298405 2.2103851
1.3318872 -0.34321049 2.2102137
1.3344231 -0.37354225 2.2099559
1.3374565 -0.40340689 2.2102287
1.3410239 -0.43332651 2.2107143
1.3451078 -0.46256068 2.2097583
1.349324 -0.49122643 2.211622
1.3516815 -0.51026303 2.2243104
1.3609087 0.10109026 2.1882
1.3586266 0.074292623 2.182687
1.3557782 0.045472682 2.1788528
1.3522127 0.016226379 2.1781368
1.3487358 -0.013485027 2.1776581
1.3452463 -0.043033421 2.178386
1.3420057 -0.072628036 2.1794164
1.3393064 -0.10269753 2.1794424
1.337142 -0.13344415 2.178571
1.335237 -0.16368154 2.1787627
1.3339016 -0.19312523 2.1787322
1.3330481 -0.22260287 2.1788044
1.332679 -0.25249362 2.1792498
1.3329754 -0.28301674 2.1793582
1.3339038 -0.31356743 2.1796503
1.3354244 -0.34373599 2.1803527
1.3376687 -0.37342739 2.1801248
1.3405275 -0.40339285 2.1799645
1.3438537 -0.43281642 2.1800206
1.3477407 -0.46301752 2.1803539
1.3500719 -0.48476908 2.1883996
1.3592856 0.036741287 2.1611891
1.357533 0.014135987 2.1569128
1.3552897 -0.014840197 2.1519489
1.3526583 -0.043887023 2.1490748
1.3495145 -0.073112562 2.1488183
1.346662 -0.10272206 2.1485062
1.344028 -0.13297673 2.1485918
1.3419352 -0.16350162 2.1481667
1.3399622 -0.1939999 2.1492927
1.338829 -0.22355564 2.1493156
1.3382196 -0.25316525 2.149442
1.3381815 -0.28286055 2.1496809
1.3387821 -0.31279236 2.1499155
1.3402028 -0.34270129 2.1492333
1.3420424 -0.37285617 2.1498432
1.3445575 -0.40294126 2.1501226
1.3475838 -0.43308297 2.1509159
1.3494003 -0.45715404 2.1588912
1.3566408 -0.051778942 2.1318569
1.3550057 -0.075462401 2.1283114
1.353143 -0.10436749 2.124295
1.351404 -0.13365421 2.1207473
1.3493896 -0.16332339 2.1193252
1.3472323 -0.1935385 2.119873
1.3457983 -0.22407337 2.1196012
1.3448396 -0.25422141 2.1197677
1.3444695 -0.28410861 2.1200516
1.3447654 -0.31389064 2.1202302
1.3459253 -0.34407774 2.1194499
1.3473151 -0.37369785 2.1205921
1.3484981 -0.40251982 2.1259592
1.3495235 -0.42508733 2.1322701
1.35355 -0.17012635 2.1026592
1.3523355 -0.19429052 2.100915
1.3512406 -0.22330882 2.0989418
1.3502965 -0.25314388 2.0981011
1.3497055 -0.2837621 2.0980976
1.3495903 -0.31328464 2.0988472
1.3497839 -0.34251866 2.1010966
1.3500302 -0.36406907 2.1041729
1.4117801 0.21431056 2.7022238
1.4109702 0.19771433 2.7020643
1.4028718 -0.22137786 2.7038867
1.4032016 -0.23938082 2.7042861
1.4128191 0.34269801 2.6724048
1.411772 0.31696835 2.675745
1.4108791 0.28759202 2.6803603
1.4096897 0.25732148 2.68314
1.4085009 0.22739001 2.6852639
1.4069233 0.19730768 2.6852727
1.405452 0.16731593 2.6853037
1.3978889 -0.19196911 2.6876152
1.3983614 -0.22138301 2.6882842
1.3984735 -0.25109985 2.6871006
1.3986793 -0.28116211 2.6855445
1.39889 -0.3112475 2.6832578
1.39904 -0.34170979 2.6798596
1.3991344 -0.36848402 2.6759911
1.4134974 0.42502522 2.6405265
1.4126213 0.40441433 2.6456482
1.4115772 0.3761577 2.6526046
1.4097934 0.34823829 2.6544871
1.4075131 0.31818929 2.6541598
1.4058075 0.28762984 2.656384
1.4036531 0.2573036 2.6559193
1.4016569 0.22730212 2.6556749
1.3997445 0.19816464 2.6551611
1.3981915 0.1684988 2.6558504
1.3969157 0.13885494 2.6571231
1.3953331 0.10864999 2.6568019
1.3938992 0.078482136 2.6565475
1.3890445 -0.10247142 2.6570609
1.3887973 -0.13228844 2.6570005
1.3888834 -0.16244896 2.6574354
1.3891981 -0.19265318 2.657975
1.3896341 -0.22254181 2.6582494
1.3900089 -0.25228363 2.657604
1.3909893 -0.28187525 2.6583338
1.3919249 -0.31138408 2.6581788
1.3932624 -0.3414464 2.6586058
1.3946271 -0.37283838 2.6580882
1.3956907 -0.40149724 2.6560903
1.3964155 -0.43013456 2.651865
1.3966017 -0.45276031 2.6461976
1.4129112 0.46089739 2.614747
1.4116955 0.43549827 2.6228456
1.4093733 0.40732837 2.624433
1.4069467 0.37859043 2.6251934
1.4042952 0.34784722 2.6252794
1.4015701 0.31727955 2.6244812
1.3995988 0.28748637 2.6266897
1.3971493 0.25798479 2.6259427
1.3947821 0.22861291 2.6251476
1.3928308 0.19877462 2.6258402
1.391145 0.16844307 2.6272173
1.3891637 0.13827866 2.6267345
1.3873389 0.10816648 2.6263196
1.3856812 0.07809975 2.6259778
1.3845792 0.048219264 2.627085
1.3833334 0.018079691 2.6270587
1.3822536 -0.011904556 2.6269689
1.3818245 -0.041882146 2.6285098
1.3811805 -0.07186114 2.6286125
1.3804531 -0.10151699 2.6277256
1.3801429 -0.13183813 2.6275845
1.3802197 -0.16187678 2.6280048
1.3804727 -0.19219857 2.6282411
1.3807199 -0.22206596 2.6276581
1.3816106 -0.25227976 2.6284389
1.3826258 -0.28219897 2.6288128
1.3835866 -0.31286776 2.6279578
1.3851061 -0.34199527 2.6284332
1.3869624 -0.37122026 2.629303
1.3886602 -0.40211356 2.628284
1.390996 -0.43225065 2.6290822
1.3929899 -0.46164265 2.6278753
1.3941684 -0.4888615 2.622931
1.394707 -0.51130712 2.6159952
1.4125242 0.49104396 2.5880983
1.4106617 0.46652454 2.5939493
1.4078293 0.43778968 2.5950141
1.4047785 0.40812603 2.5948408
1.4016862 0.37718475 2.5948062
1.3989618 0.34721521 2.5959399
1.3960366 0.31765333 2.59519
1.3934727 0.28855887 2.5956788
1.390964 0.25841516 2.5963888
1.3882627 0.22811505 2.5956235
1.3860343 0.19792798 2.596401
1.3839736 0.16781017 2.5972462
1.3817418 0.13772523 2.5966754
1.3796828 0.10770141 2.5961771
1.3784122 0.078196727 2.5980365
1.377856 0.04819306 2.6019597
1.3769441 0.018502498 2.6036284
1.3761921 -0.011371266 2.6051412
1.3753374 -0.041820817 2.6055748
1.3746488 -0.071606711 2.6057558
1.3741419 -0.10160114 2.6058192
1.3739314 -0.13151723 2.6061082
1.3735936 -0.16165113 2.6051104
1.3733494 -0.19156712 2.6035566
1.3729751 -0.22199193 2.6005671
1.3730989 -0.25172952 2.5983596
1.3742347 -0.28155154 2.5987639
1.3756988 -0.31147909 2.599308
1.3770964 -0.34242585 2.5982852
1.3792312 -0.37249234 2.5991459
1.381232 -0.40234345 2.5984821
1.3838851 -0.43183628 2.5996318
1.3863447 -0.46253958 2.5985632
1.3893378 -0.49228111 2.5993328
1.3917387 -0.52063739 2.5971043
1.3928463 -0.54469907 2.5896287
1.4121158 0.51758832 2.5572815
1.4103813 0.49662861 2.5641251
1.4071178 0.46777743 2.564748
1.403651 0.43766999 2.5645435
1.4003758 0.40775713 2.5651865
1.3970225 0.37710196 2.5653496
1.3938663 0.34789941 2.5652139
1.390908 0.31837928 2.5660062
1.3877327 0.28761098 2.5656044
1.3850431 0.25794446 2.566644
1.3821225 0.22740766 2.5662131
1.3796165 0.19747253 2.5668442
1.3783815 0.16881672 2.5721655
1.3771138 0.13950321 2.5764871
1.3760517 0.11561175 2.5791433
1.368825 -0.26317707 2.5815096
1.3690979 -0.28427002 2.5794091
1.369561 -0.31261146 2.5759566
1.3697693 -0.34193918 2.5699325
1.3716986 -0.37155592 2.5693126
1.374083 -0.40215331 2.5689573
1.3768587 -0.43241242 2.5691814
1.3797433 -0.4618001 2.569139
1.3830698 -0.49239454 2.5695536
1.3862965 -0.52222967 2.5689125
1.389713 -0.55146891 2.5686188
1.3911793 -0.57388669 2.5612271
1.4106154 0.52392691 2.5331459
1.4073508 0.49715355 2.5344727
1.4035661 0.46686307 2.5346024
1.4000032 0.43783385 2.5349209
1.3962772 0.40669647 2.5355127
1.3927953 0.37801701 2.5351219
1.3893335 0.34799272 2.5355277
1.3859463 0.31773555 2.535881
1.3826287 0.28722885 2.5361691
1.3795638 0.25716966 2.5368505
1.3779004 0.22963037 2.5431414
1.3768115 0.20737328 2.5486622
1.3660858 -0.35289383 2.552053
1.3667114 -0.37525234 2.5472822
1.3675344 -0.40222594 2.5404677
1.3703098 -0.43187979 2.539819
1.3734088 -0.4623968 2.5388756
1.3770258 -0.49228817 2.5395451
1.3807573 -0.52253419 2.5394971
1.3845599 -0.55216664 2.539191
1.3884304 -0.58149517 2.5384879
1.3898787 -0.60156119 2.5296664
1.4107833 0.54604411 2.4982207
1.4086721 0.52734154 2.5041792
1.4046669 0.49737567 2.5046706
1.4006999 0.4678427 2.5045929
1.3966126 0.43652368 2.5052943
1.3927767 0.40740299 2.5050173
1.3890479 0.37777576 2.5056958
1.3852549 0.34756655 2.5056787
1.3815343 0.31683227 2.5059924
1.378418 0.28809968 2.5080035
1.3770103 0.26535797 2.5160563
1.3643346 -0.41391882 2.5205557
1.3649805 -0.43494958 2.5125215
1.3676348 -0.46195331 2.5099874
1.3712978 -0.49218804 2.5091949
1.3754711 -0.52257311 2.5097485
1.3796725 -0.55279279 2.5093522
1.3841259 -0.58257735 2.5098104
1.3876483 -0.60828912 2.5070956
1.4096029 0.54859877 2.4730823
1.4066091 0.52727294 2.4739833
1.4023576 0.49697492 2.4749241
1.3981817 0.4677211 2.4744582
1.3939924 0.43709323 2.4757669
1.3898687 0.40800685 2.4746201
1.3858325 0.37752226 2.4758315
1.3817644 0.34710872 2.4756577
1.3780885 0.31753927 2.4771578
1.3763466 0.29703245 2.4844966
1.3625484 -0.44686997 2.4928741
1.3632019 -0.46630201 2.4826899
1.3662741 -0.49243358 2.4800379
1.3704379 -0.52213925 2.4794207
1.3751066 -0.55248392 2.4799638
1.3797958 -0.58249027 2.4797084
1.3847187 -0.61300761 2.4793241
1.3872471 -0.63265443 2.4730783
1.4083447 0.54950821 2.4439509
1.404973 0.5266611 2.4444027
1.4005473 0.49677223 2.4445655
1.3961661 0.4669416 2.4449887
1.3918316 0.43737498 2.4449165
1.3875883 0.40773252 2.4456253
1.3831995 0.37709427 2.4452853
1.3789592 0.34613556 2.4463806
1.3760874 0.32388207 2.4484186
1.3609126 -0.47619075 2.4611149
1.3621128 -0.49419564 2.4518819
1.366117 -0.52250499 2.4498255
1.370909 -0.55252719 2.4497333
1.375936 -0.5825808 2.4497819
1.3812065 -0.61315995 2.4496875
1.3852475 -0.63715291 2.4477561
1.4073644 0.54930115 2.4139116
1.4039004 0.52648365 2.4146252
1.3993299 0.49660671 2.4143014
1.3948147 0.4667457 2.4152334
1.3903213 0.43714905 2.4146743
1.3859379 0.40753058 2.4158804
1.3813937 0.37693813 2.4151723
1.3771961 0.34742948 2.4167914
1.3747044 0.32971391 2.4174676
1.3597779 -0.50310475 2.4253013
1.3622808 -0.52280772 2.4199545
1.3672183 -0.55237442 2.4197476
1.3726268 -0.5830614 2.4200306
1.3780477 -0.61316806 2.4196508
1.3832078 -0.64130002 2.4188404
1.4066367 0.54722649 2.3852825
1.4034312 0.52656072 2.3846564
1.3987761 0.49660864 2.3842499
1.3941624 0.46678469 2.3853297
1.3895741 0.43709332 2.3846862
1.3850851 0.40762842 2.3859015
1.380384 0.37659863 2.385246
1.376085 0.3475402 2.3865991
1.3735318 0.33039659 2.3851056
1.359453 -0.52461118 2.3916712
1.3641794 -0.55270725 2.3899055
1.3697548 -0.5834375 2.3896928
1.3752367 -0.61243117 2.3898642
1.3809197 -0.64178568 2.3899429
1.3840013 -0.65915281 2.3853285
1.4062726 0.54468191 2.3627288
1.403522 0.52625287 2.3549809
1.3989344 0.49679062 2.3543949
1.3942866 0.46707451 2.3551464
1.3896039 0.43694422 2.3547065
1.3850405 0.40753672 2.3559132
1.3803334 0.37677968 2.3554511
1.3757508 0.34652293 2.3561058
1.3726914 0.3259638 2.3544934
1.3576324 -0.52986372 2.3610008
1.3617761 -0.55319709 2.3601224
1.3673148 -0.58280009 2.3600318
1.3729889 -0.61199403 2.3601575
1.3791616 -0.64302737 2.3599081
1.3828773 -0.66228026 2.3565946
1.4034412 0.5210247 2.327214
1.3997583 0.49648824 2.3243418
1.3950808 0.46646911 2.3249257
1.3903573 0.43612689 2.3253417
1.3857522 0.40622976 2.3251657
1.381227 0.37703156 2.3260279
1.3765197 0.34596381 2.325753
1.3724959 0.31900916 2.3249745
1.37027 0.30054104 2.3142495
1.3562329 -0.53286082 2.3313332
1.3599861 -0.55362761 2.3299074
1.3655455 -0.58264798 2.3301795
1.3713531 -0.6119526 2.3302412
1.3777037 -0.64321101 2.3297648
1.3817141 -0.66260993 2.329731
1.4035358 0.51541263 2.3061724
1.4010587 0.49491498 2.2962441
1.3968468 0.4663316 2.2943735
1.3923173 0.43699938 2.2952411
1.3876913 0.40636069 2.2947078
1.3831458 0.37713403 2.2960877
1.3785565 0.34671038 2.2958755
1.373925 0.3159526 2.2961521
1.3705668 0.29139796 2.2925568
1.3550966 -0.53339255 2.300746
1.3588357 -0.55358529 2.2999439
1.3644812 -0.58279222 2.3002653
1.3703756 -0.61220199 2.300246
1.3768229 -0.64349705 2.2996752
1.3808935 -0.66278386 2.3008399
1.4016342 0.48733473 2.2743762
1.3991756 0.46490023 2.2658746
1.3950129 0.43598619 2.2649784
1.3906355 0.40668079 2.2653098
1.3861277 0.37607297 2.2650523
1.3816988 0.34690732 2.265939
1.3771865 0.3166334 2.2660871
1.3726213 0.28594565 2.2664428
1.3693559 0.25977284 2.2619309
1.3672502 0.23833156 2.2544248
1.354358 -0.53155053 2.2704484
1.3584113 -0.55336893 2.2694769
1.3641682 -0.5831849 2.270139
1.3700688 -0.61255586 2.2702951
1.3763127 -0.64271009 2.2699122
1.3799825 -0.66017324 2.2705297
1.4001658 0.4562248 2.2462907
1.3980703 0.43355492 2.2381759
1.3945818 0.40587607 2.235292
1.3904109 0.37657145 2.2352371
1.3860404 0.34602851 2.2351351
1.3816054 0.31674781 2.2364359
1.377398 0.28710386 2.2358975
1.3727474 0.25590038 2.2365983
1.3689961 0.22735682 2.2343936
1.3666036 0.20211853 2.2274041
1.3540163 -0.5268392 2.2391922
1.3587813 -0.55311239 2.2398605
1.3646247 -0.58367229 2.2399185
1.3705194 -0.61326861 2.2403579
1.3764603 -0.64211303 2.2399812
1.3797851 -0.65900028 2.2527041
1.397475 0.40103507 2.2138638
1.3950243 0.37438187 2.2077205
1.3915968 0.34627199 2.205663
1.3874896 0.31610116 2.2052805
1.3830781 0.28574032 2.2059746
1.378861 0.25671917 2.2064037
1.3746362 0.22686654 2.2061465
1.3699667 0.19592945 2.2071371
1.3668203 0.16749822 2.2028959
1.3644981 0.14179504 2.1970046
1.3519936 -0.50477278 2.2038107
1.3547714 -0.52344298 2.2096615
1.3600302 -0.5534246 2.2107277
1.3657711 -0.58364087 2.2093115
1.3717139 -0.61418819 2.2101369
1.3766823 -0.63890976 2.2107792
1.3954656 0.34255567 2.1857424
1.3929682 0.31459349 2.1807034
1.3902142 0.2855691 2.176228
1.3864043 0.25588772 2.1751866
1.3817923 0.22585031 2.1766596
1.3776085 0.19665006 2.1767292
1.3734527 0.16666026 2.1761394
1.3686519 0.13590097 2.177531
1.3654351 0.10732125 2.17431
1.3630159 0.078851223 2.1684647
1.3609085 0.05762751 2.1654806
1.3508875 -0.47734123 2.1692979
1.3527844 -0.49602866 2.1781552
1.3570135 -0.52340651 2.1796126
1.3621812 -0.55387241 2.180222
1.3675866 -0.58354884 2.1800787
1.3734992 -0.61437285 2.1794329
1.3770549 -0.63438159 2.1850905
1.3938589 0.2760745 2.1581678
1.3918059 0.25278169 2.1544576
1.3891666 0.22442505 2.1503286
1.3865235 0.19515933 2.1456509
1.382067 0.16616993 2.146594
1.3775821 0.13660653 2.147243
1.373415 0.10639989 2.1465745
1.368952 0.07630235 2.1470611
1.3647223 0.046635617 2.1473074
1.3622692 0.017303174 2.1421793
1.3600008 -0.010741681 2.1375139
1.3580546 -0.031427786 2.1353264
1.3506763 -0.44526535 2.1389923
1.3521712 -0.46609551 2.1469197
1.3555593 -0.49323949 2.1494944
1.3600843 -0.52393973 2.1504624
1.3650625 -0.55361331 2.1493099
1.3702848 -0.58415061 2.1501484
1.3748903 -0.61006075 2.1515222
1.3909402 0.18596826 2.1279948
1.3885229 0.16248627 2.1252189
1.3861754 0.13431387 2.1201761
1.3832541 0.10616653 2.1167426
1.3786228 0.07616692 2.1173959
1.3743079 0.046215586 2.1173372
1.3702178 0.016082818 2.1168525
1.3659191 -0.013865566 2.1175559
1.3620915 -0.043317832 2.1176763
1.3598695 -0.072808035 2.1134222
1.3578644 -0.10213002 2.1093378
1.3560884 -0.12871164 2.1063023
1.3505251 -0.38547704 2.1080227
1.3514965 -0.40638527 2.1113803
1.3528347 -0.434331 2.1185424
1.3559253 -0.46353424 2.1194882
1.3597143 -0.49428242 2.1203375
1.3640351 -0.52373224 2.1192846
1.3685839 -0.55397403 2.1200199
1.3733466 -0.58341545 2.120707
1.3760004 -0.60391885 2.1285162
1.3880057 0.096038744 2.099232
1.3859937 0.074731372 2.0960917
1.383394 0.045296956 2.0913284
1.3804932 0.015813634 2.0874987
1.3760726 -0.014425704 2.087801
1.3720257 -0.044254407 2.0877242
1.3682971 -0.074243039 2.087352
1.364661 -0.1038071 2.087703
1.3610933 -0.13425134 2.0886486
1.3585393 -0.16321845 2.0881205
1.3569145 -0.19320805 2.0856035
1.3556132 -0.22314878 2.0835283
1.3545346 -0.25329033 2.0824552
1.3537302 -0.28316331 2.0825541
1.3533878 -0.31359801 2.0833895
1.3533821 -0.34374964 2.0857422
1.3537822 -0.37356853 2.0894413
1.3556888 -0.40351778 2.0893259
1.3581285 -0.43429407 2.0898244
1.3611901 -0.46443409 2.0896666
1.3646657 -0.49379039 2.0892696
1.3685369 -0.52426481 2.0898283
1.3726306 -0.55376601 2.0906305
1.3748441 -0.57550228 2.0984449
1.3855329 0.0077092531 2.0707967
1.3834503 -0.016364446 2.0670059
1.381006 -0.045727775 2.0624018
1.3785114 -0.07531435 2.0582659
1.3747642 -0.10522262 2.0580227
1.371176 -0.13487183 2.0583081
1.3681142 -0.16479984 2.0580821
1.3654685 -0.19469287 2.0579162
1.3632886 -0.22457634 2.0578184
1.3612385 -0.25441474 2.059099
1.360162 -0.2843655 2.0591621
1.3597021 -0.31440362 2.0593164
1.3598878 -0.3445636 2.0595658
1.3609152 -0.37479433 2.0591033
1.3624182 -0.4042953 2.0590997
1.3644691 -0.43392634 2.0591569
1.367125 -0.46411783 2.0590444
1.3701348 -0.4945884 2.0597754
1.3730907 -0.52280891 2.0618296
1.3747411 -0.5466283 2.0703433
1.3831489 -0.086163379 2.0418856
1.3813713 -0.10815924 2.0388808
1.3793056 -0.13673165 2.0348485
1.377177 -0.16592558 2.031534
1.3753612 -0.19483207 2.0283751
1.3730035 -0.22437108 2.0277865
1.3705294 -0.25434572 2.0290637
1.3690705 -0.28428552 2.0290542
1.3682203 -0.31418505 2.0291343
1.3680286 -0.34407452 2.0292048
1.3686647 -0.37390181 2.0285687
1.3697667 -0.40461674 2.028662
1.3712959 -0.43484643 2.0294011
1.3729167 -0.4630895 2.0314968
1.3741088 -0.49122646 2.0379093
1.3751175 -0.51219416 2.0438437
1.3800313 -0.20487367 2.0121293
1.3787436 -0.22673006 2.0101798
1.3773215 -0.25543907 2.0079086
1.3761225 -0.28511071 2.0062957
1.3752649 -0.31480065 2.0054507
1.374732 -0.34510458 2.005595
1.3746524 -0.3748 2.006474
1.3748219 -0.4038389 2.0087178
1.3752999 -0.42977855 2.0114894
1.4188542 0.34750041 2.7024179
1.4170408 0.3168928 2.701973
1.415638 0.29011881 2.7022521
1.4140875 0.2586318 2.7027187
1.4125569 0.22953717 2.7023861
1.4035439 -0.25463438 2.7046542
1.4042809 -0.28240895 2.7053788
1.4049292 -0.31423333 2.7048931
1.4059708 -0.34227616 2.7056284
1.4072649 -0.37166095 2.7066371
1.4244394 -0.66962743 2.7117274
1.4247551 -0.69006699 2.704056
1.4379456 0.676938 2.6825869
1.4255886 0.49785912 2.6845031
1.4233975 0.46725208 2.6840963
1.4212418 0.43765092 2.6833694
1.4195502 0.40862015 2.6850886
1.4174936 0.37758675 2.6850717
1.4158661 0.34797487 2.6865296
1.41485 0.31916422 2.6903889
1.4140053 0.28966215 2.6945951
1.4131548 0.2615149 2.6977983
1.4123607 0.23914705 2.699451
1.4028878 -0.26424763 2.7017608
1.4030697 -0.28503272 2.7008419
1.402844 -0.31388354 2.6973102
1.4028676 -0.34366599 2.6938393
1.4032888 -0.37243992 2.6912048
1.403872 -0.40130392 2.6884232
1.4053335 -0.43282372 2.6878562
1.4071748 -0.4622159 2.688751
1.4088342 -0.49229261 2.6881349
1.4107425 -0.52228361 2.6881547
1.4191911 -0.64223027 2.6882544
1.421576 -0.67267334 2.6891315
1.4229658 -0.69819146 2.6849723
1.4384966 0.70751262 2.6530538
1.4362063 0.67794442 2.6528018
1.4338033 0.64732414 2.6531539
1.4313135 0.61701488 2.6528571
1.428906 0.58721471 2.6534564
1.4265037 0.55776852 2.6538346
1.4239697 0.52791572 2.653383
1.4215446 0.49721253 2.6542642
1.4191759 0.46764687 2.6546197
1.4167521 0.43828765 2.6542616
1.4153678 0.40888962 2.659935
1.414372 0.38154748 2.6660304
1.3997486 -0.40766859 2.6707332
1.3999429 -0.43291622 2.6655591
1.400552 -0.46341342 2.6597962
1.402324 -0.49220407 2.6585512
1.4046202 -0.52218419 2.6586573
1.4069991 -0.55228913 2.6585078
1.4095757 -0.58234501 2.6589665
1.4120443 -0.61226034 2.6584058
1.4148259 -0.64257073 2.6592429
1.417377 -0.67248482 2.6585219
1.4200842 -0.70245552 2.658761
1.4216335 -0.72466457 2.6548638
1.434418 0.67792726 2.6225963
1.4316921 0.64732587 2.6233172
1.4289448 0.61789083 2.6231351
1.426137 0.58737063 2.6238763
1.4232576 0.5574137 2.6234632
1.4204817 0.52747297 2.6240757
1.4176044 0.49750611 2.6237352
1.4155476 0.47025123 2.6272957
1.4144363 0.44554886 2.6350946
1.3970487 -0.47347924 2.641459
1.3976443 -0.4952985 2.6362038
1.3985176 -0.52307963 2.6289546
1.4013 -0.55226177 2.629302
1.4040833 -0.58226562 2.6286998
1.4071388 -0.61244047 2.6289263
1.4103024 -0.64286911 2.6293406
1.4131927 -0.67216742 2.6283391
1.4165277 -0.70294869 2.6293321
1.4194326 -0.73237371 2.6280828
1.4203784 -0.75066751 2.6186457
1.4326503 0.67683297 2.5931561
1.4296257 0.64718288 2.5928555
1.4265406 0.6171006 2.5934458
1.4234304 0.58733553 2.5937481
1.4202988 0.55781215 2.593771
1.4170997 0.52717382 2.5942957
1.414777 0.50187659 2.5972121
1.4137192 0.48058945 2.6064162
1.3953571 -0.53191215 2.6093652
1.3960295 -0.5541572 2.6008351
1.3989244 -0.58270776 2.5995703
1.4021389 -0.61225092 2.598722
1.4056761 -0.64250088 2.5987868
1.4094026 -0.67325848 2.5995007
1.4128134 -0.70264155 2.5989499
1.4163487 -0.73244524 2.5990984
1.4188087 -0.75520861 2.5970297
1.4310701 0.67688459 2.5629556
1.4277492 0.64706689 2.5629144
1.4243381 0.61673689 2.5637171
1.4208853 0.58708376 2.5634744
1.4173696 0.55658168 2.5640209
1.4143605 0.52956873 2.5654731
1.4132924 0.51082158 2.5759649
1.3934126 -0.56504494 2.5801477
1.3943474 -0.58481914 2.5716391
1.3973935 -0.61238539 2.5689218
1.4013793 -0.64264804 2.569206
1.405371 -0.67279434 2.5692968
1.4092805 -0.70240653 2.5691488
1.413161 -0.73197728 2.5688643
1.4168775 -0.76069105 2.5685241
1.4296515 0.67691547 2.5325904
1.4259961 0.64615369 2.5335498
1.4224708 0.61765915 2.5333784
1.4186599 0.58706135 2.533756
1.4149535 0.55764812 2.5339022
1.4128027 0.5383026 2.5374298
1.3918028 -0.59429723 2.5487287
1.3933322 -0.61435312 2.5404563
1.3971963 -0.64252955 2.5393074
1.4014328 -0.67189819 2.539006
1.4060154 -0.70293891 2.5393558
1.4105692 -0.73416489 2.5394983
1.4148078 -0.76409465 2.5390177
1.4167941 -0.78130066 2.5333054
1.4283955 0.67643523 2.5029783
1.424525 0.64616287 2.5032613
1.4207573 0.61746573 2.5034156
1.4167418 0.58728009 2.503777
1.4130292 0.55914742 2.504951
1.390584 -0.62072873 2.5145807
1.39328 -0.64264131 2.509212
1.3982668 -0.67381889 2.5097344
1.4029655 -0.70374888 2.5092301
1.4076192 -0.7330516 2.5094185
1.412267 -0.76304376 2.5091364
1.4154024 -0.78418881 2.5078697
1.4273629 0.67603046 2.4734521
1.4233091 0.64609939 2.4728193
1.4193077 0.61687547 2.473948
1.4151077 0.58719075 2.4733934
1.4117062 0.56247312 2.4754264
1.3903797 -0.64561892 2.481101
1.3948119 -0.67284977 2.4795251
1.3999023 -0.70279247 2.4793372
1.4050741 -0.73318624 2.4794192
1.4100952 -0.7633068 2.4791942
1.4137893 -0.78605688 2.4787972
1.4266524 0.67630202 2.4433539
1.4224212 0.64610565 2.4429085
1.4182699 0.6170246 2.4438822
1.4138637 0.58693868 2.4435604
1.4104896 0.5638299 2.44453
1.3881936 -0.65104103 2.4522445
1.3918695 -0.67293406 2.4495964
1.3972421 -0.70266449 2.4494486
1.4026134 -0.73241228 2.4494383
1.4079394 -0.76232642 2.449538
1.4123209 -0.78791237 2.4485328
1.4261935 0.67638159 2.4129808
1.4218378 0.64593714 2.4132588
1.4175828 0.61701477 2.4135494
1.4130454 0.58671778 2.4138823
1.4095435 0.56359094 2.4139779
1.3864703 -0.65494984 2.4268627
1.3890908 -0.67200875 2.4197361
1.3947468 -0.70171982 2.4197404
1.4004703 -0.73196119 2.4194517
1.4062195 -0.76269853 2.4194062
1.4109607 -0.78884953 2.4188001
1.4260457 0.67645079 2.3828006
1.4216349 0.64598435 2.3835661
1.4173372 0.61714315 2.383342
1.4127345 0.5868361 2.3839636
1.4087927 0.56121939 2.3831079
1.3873007 -0.6741606 2.3900535
1.3930516 -0.70330644 2.3895857
1.3989277 -0.73299199 2.3896523
1.4046707 -0.76250798 2.3894029
1.4098258 -0.7895748 2.3896961
1.4260826 0.67543191 2.3524289
1.4218526 0.64628595 2.3538222
1.4173684 0.6160962 2.35309
1.4127479 0.5857873 2.3541646
1.4084351 0.55770117 2.3532467
1.4059751 0.54063243 2.3429546
1.3860869 -0.67702246 2.3602383
1.391778 -0.70500588 2.3594451
1.3976173 -0.73358828 2.3593903
1.4033964 -0.76222092 2.3596537
1.4087496 -0.78944939 2.3598738
1.4266901 0.67587352 2.322283
1.4224887 0.64653152 2.3236589
1.4180474 0.61616284 2.323411
1.4135349 0.58612424 2.3238716
1.4089911 0.5562191 2.3237095
1.4056964 0.5338304 2.3202524
1.384841 -0.67762035 2.3293977
1.3905544 -0.70482731 2.3296275
1.3965387 -0.73341906 2.3297534
1.4025321 -0.76248783 2.329581
1.4078338 -0.78887701 2.3290486
1.4315126 0.70550174 2.2929196
1.42769 0.67631298 2.2920651
1.4234471 0.64592874 2.2938659
1.4191694 0.61556834 2.2932727
1.4149265 0.58631039 2.2932148
1.410404 0.55620682 2.2944634
1.4061444 0.52700621 2.2927172
1.4038334 0.50815415 2.2851338
1.3840723 -0.67794639 2.2992597
1.389782 -0.70473695 2.2999077
1.3958771 -0.73346406 2.2996459
1.4020748 -0.76307166 2.2993224
1.4070759 -0.78746784 2.3000453
1.4351718 0.7264111 2.2635062
1.4327216 0.7060445 2.2626383
1.4289424 0.67560828 2.2622216
1.4249244 0.64535546 2.2637267
1.4210179 0.61607677 2.2632244
1.4167964 0.585549 2.2632835
1.4125488 0.55603701 2.2643394
1.4083052 0.52598709 2.2636406
1.4043458 0.49780911 2.2624807
1.4020779 0.4763236 2.2543201
1.3832152 -0.67535979 2.2695124
1.3891199 -0.70299345 2.2693815
1.3954911 -0.73282391 2.2696137
1.4019804 -0.76360434 2.2692916
1.4065678 -0.78583097 2.2709329
1.4356356 0.72378147 2.2444487
1.4337225 0.70286375 2.2350307
1.4306936 0.67516547 2.2320647
1.4271162 0.64591861 2.2330203
1.4232485 0.61550522 2.2339103
1.419498 0.58565456 2.2330184
1.4155335 0.55581045 2.2334366
1.4113522 0.5257448 2.234689
1.4074013 0.49575874 2.2335501
1.4034517 0.46721601 2.2336497
1.4009464 0.44160476 2.226351
1.3795369 -0.65601659 2.2311959
1.3829818 -0.67308688 2.2393789
1.3893225 -0.70293331 2.2399027
1.3958302 -0.733473 2.239357
1.4022722 -0.7641319 2.2393374
1.4062822 -0.78369552 2.2413983
1.4339719 0.69357824 2.2141507
1.4323499 0.67251909 2.2058945
1.4296229 0.64513344 2.2029891
1.4262166 0.61559588 2.2038655
1.4228241 0.58567327 2.2031741
1.4191842 0.55536699 2.2033589
1.4155467 0.52587712 2.2035794
1.4115746 0.49572286 2.2047954
1.407886 0.46557513 2.2037694
1.4038157 0.43593761 2.2049944
1.4009278 0.40831676 2.2008948
1.3985996 0.3808639 2.1943979
1.3797424 -0.65317243 2.207571
1.3839166 -0.67363167 2.2095566
1.3902447 -0.70386255 2.2099757
1.3966653 -0.73431212 2.2091675
1.4028831 -0.76436967 2.2098296
1.4061809 -0.78153241 2.2186105
1.4312413 0.64003557 2.181885
1.429302 0.61397094 2.1762171
1.4267225 0.58524919 2.1736071
1.423625 0.5553242 2.1733544
1.4203787 0.52510148 2.173239
1.4169981 0.49552846 2.1737177
1.4134147 0.46600783 2.1746454
1.4099102 0.43564412 2.1742129
1.4061358 0.40523294 2.1746056
1.4023709 0.37569645 2.1749489
1.3994772 0.34681877 2.1716778
1.3971412 0.31817073 2.1663442
1.3955312 0.29721808 2.1621573
1.3801289 -0.64766639 2.1785417
1.3855233 -0.67457974 2.1792877
1.3916972 -0.70490021 2.1799674
1.3979568 -0.73520744 2.1791394
1.4031045 -0.76088458 2.1809425
1.4292197 0.58098751 2.1542878
1.4275014 0.55371809 2.1494529
1.4255323 0.52432859 2.1452634
1.423209 0.49508303 2.1429229
1.4199018 0.46491688 2.1442609
1.4169807 0.4352003 2.143575
1.4134176 0.40562466 2.1449618
1.4101925 0.37529263 2.1442227
1.4063413 0.34538117 2.1454661
1.4028625 0.31557626 2.1449108
1.3993502 0.28620577 2.1442137
1.3965924 0.25745201 2.1408722
1.3944149 0.22874175 2.1355135
1.3926201 0.20658524 2.1316583
1.3779979 -0.62262231 2.1428962
1.3813436 -0.64362693 2.1504998
1.3873544 -0.67387378 2.1489975
1.3932276 -0.70391446 2.1499777
1.3992391 -0.73376185 2.1485319
1.403286 -0.75538081 2.1526067
1.4266331 0.49066988 2.12572
1.4250574 0.4632746 2.1221333
1.4232135 0.43440613 2.1190305
1.4210882 0.40435985 2.1163878
1.4188046 0.3751334 2.1142836
1.4156184 0.34513748 2.1143801
1.4121809 0.31507689 2.1146562
1.4083898 0.28512865 2.1154399
1.4047277 0.25525358 2.1152611
1.4008605 0.22553314 2.1151862
1.3969269 0.19660984 2.1150742
1.3942769 0.1667432 2.1105676
1.391814 0.13753378 2.1056049
1.3899605 0.115431 2.1017587
1.376812 -0.59608912 2.1094592
1.3793137 -0.61599064 2.1179438
1.3843055 -0.64482993 2.1200309
1.3899212 -0.67446893 2.1189251
1.3954992 -0.70449483 2.1201293
1.4010344 -0.73338622 2.1196172
1.4036903 -0.75105482 2.1302705
1.4234757 0.36629194 2.0963914
1.4219089 0.34279671 2.0941384
1.4196076 0.31448695 2.0923104
1.4176936 0.28424451 2.0883398
1.4152143 0.25492957 2.0857446
1.4116638 0.22512452 2.0852549
1.4075592 0.19481991 2.0854604
1.4032445 0.16554688 2.0860193
1.3990991 0.13549681 2.0854423
1.3946335 0.10519151 2.0853143
1.3920054 0.076506816 2.0808792
1.3895111 0.048513073 2.0763521
1.3874626 0.025455158 2.0726559
1.3764298 -0.56618768 2.0773528
1.3782303 -0.58651024 2.0866032
1.3822787 -0.61411083 2.0899074
1.3874626 -0.64442736 2.0896633
1.3928518 -0.674712 2.0889685
1.3981824 -0.70508367 2.0900149
1.401907 -0.72670633 2.0920982
1.4201224 0.24351034 2.0690894
1.4185572 0.22265895 2.0665042
1.4162614 0.19375168 2.0627956
1.4139643 0.16387555 2.0582833
1.4107423 0.13486539 2.0559061
1.4062057 0.10513444 2.0561111
1.4017274 0.074469447 2.0555787
1.3969047 0.045430303 2.0564272
1.3926566 0.016242659 2.0558531
1.3897133 -0.013428263 2.0519266
1.3871512 -0.043033376 2.0472863
1.3850906 -0.065180473 2.0444021
1.3765872 -0.53332579 2.0494483
1.3782706 -0.55592179 2.0567794
1.3818901 -0.58443165 2.0592659
1.3864388 -0.61496747 2.0595899
1.3912482 -0.64488345 2.058919
1.3961344 -0.67482346 2.0589836
1.4002855 -0.70165104 2.0622165
1.4023473 -0.72046757 2.0741363
1.4167333 0.12680641 2.0385776
1.4145768 0.10299445 2.0351467
1.4118826 0.073435508 2.0306816
1.4088433 0.043818135 2.0268304
1.4045017 0.015358936 2.0264177
1.3998475 -0.014363211 2.0263767
1.3950157 -0.045165002 2.0266349
1.3904006 -0.075443245 2.0270362
1.3875194 -0.10485139 2.0238423
1.3853936 -0.13367634 2.0194438
1.3828852 -0.16051765 2.0173893
1.3811443 -0.18424147 2.0148683
1.3763592 -0.47029218 2.0185921
1.3776147 -0.49719667 2.0238373
1.3794582 -0.52456361 2.0287502
1.3829525 -0.55466729 2.0288363
1.3867753 -0.58493137 2.0290792
1.3907146 -0.61478418 2.030062
1.3952374 -0.64454341 2.0285809
1.3993623 -0.67354286 2.0304503
1.401376 -0.69408029 2.0403762
1.4143732 0.031289496 2.0090823
1.4124005 0.011778228 2.0063026
1.4094076 -0.016963325 2.0024023
1.4064753 -0.046413448 1.9981742
1.4024854 -0.075621113 1.99682
1.3981173 -0.10495897 1.9967753
1.3940289 -0.13418503 1.9967357
1.389745 -0.16450013 1.9977193
1.3864458 -0.19434163 1.9973116
1.3843544 -0.2242915 1.9947023
1.3825099 -0.25404289 1.9927735
1.3807998 -0.28485483 1.9918201
1.3797357 -0.31569272 1.990862
1.3789804 -0.34523377 1.991135
1.3787756 -0.37489611 1.9917201
1.3787389 -0.40493476 1.9940602
1.3792913 -0.43586624 1.9968119
1.3804562 -0.46503425 1.9991927
1.3828881 -0.49448994 1.9982532
1.3855066 -0.52490067 1.9987395
1.3886137 -0.55504501 1.998621
1.3917844 -0.58491176 1.9998131
1.395555 -0.61524165 1.9996001
1.3991418 -0.64326507 2.0001469
1.4007456 -0.66455424 2.0094337
1.4096239 -0.080004416 1.9777844
1.4072063 -0.10577027 1.9739214
1.4045963 -0.13601206 1.9692245
1.4012582 -0.16562688 1.9672064
1.3974297 -0.19585583 1.9671463
1.3940933 -0.22565852 1.9671106
1.391118 -0.25553471 1.9674768
1.3886735 -0.28493205 1.9680511
1.3870633 -0.31468651 1.9678829
1.3859153 -0.34476018 1.9682541
1.3854523 -0.37516859 1.9685215
1.3856034 -0.40524811 1.9688734
1.3866723 -0.43463817 1.9678491
1.3880503 -0.4651641 1.9677424
1.3896759 -0.4953177 1.9685496
1.3919678 -0.52525073 1.9682919
1.394372 -0.55527639 1.9693449
1.3972852 -0.58524263 1.9695739
1.3993094 -0.61238551 1.9748567
1.4007092 -0.63211256 1.9803963
1.4075184 -0.17065528 1.9493129
1.4054868 -0.19686459 1.9454761
1.4033689 -0.22576168 1.941713
1.4014242 -0.25598511 1.938127
1.3990746 -0.28586045 1.9371818
1.3968754 -0.31581089 1.9375204
1.3955455 -0.34530079 1.9372131
1.3947513 -0.37501311 1.937097
1.3943973 -0.40536171 1.9375372
1.3946044 -0.43559411 1.9380994
1.3955894 -0.4651894 1.9376388
1.3967323 -0.49535835 1.9384904
1.3981907 -0.52473485 1.9397436
1.399215 -0.55361462 1.9448283
1.4001687 -0.57827359 1.9505894
1.4048097 -0.28781781 1.9199951
1.4034016 -0.3162429 1.9176587
1.4021802 -0.34629324 1.9160599
1.4011974 -0.37615633 1.9156097
1.4006298 -0.40552762 1.9157439
1.400604 -0.43502107 1.9159167
1.40062 -0.46493933 1.9179103
1.4009843 -0.49278146 1.9202551
1.4013944 -0.51108587 1.9220108
1.4267802 -0.70287526 2.7137904
1.4248774 -0.70932078 2.6940336
1.4259546 -0.73252928 2.6886542
1.4281836 -0.762788 2.6889777
1.4303076 -0.79306376 2.688905
1.4235158 -0.73768985 2.6615901
1.425478 -0.76345521 2.6591005
1.4278753 -0.79217422 2.6587863
1.4303334 -0.82234067 2.6587272
1.4218867 -0.74473739 2.6397178
1.4227448 -0.76322281 2.6298273
1.4255352 -0.79230613 2.6290798
1.4284148 -0.82263231 2.6290503
1.4208026 -0.76950628 2.6008892
1.4232204 -0.79259795 2.5990791
1.4266593 -0.82422096 2.5992076
1.4191792 -0.77541131 2.5736387
1.4211679 -0.79440266 2.5690737
1.4247425 -0.82380027 2.569087
1.419183 -0.79507625 2.54003
1.4229486 -0.82368684 2.53913
1.4177263 -0.79890895 2.5099473
1.4212732 -0.82369345 2.509095
1.4162943 -0.80134183 2.4800181
1.4196479 -0.82311165 2.4792886
1.4149642 -0.80283719 2.4508133
1.418328 -0.82366544 2.4491024
1.4136658 -0.80374521 2.4200392
1.4170482 -0.8233282 2.4192934
1.4199591 -0.8402372 2.4188771
1.4127002 -0.80520427 2.3891234
1.415998 -0.82329321 2.3894081
1.4190853 -0.84041345 2.3894019
1.4115894 -0.80450231 2.3582904
1.4152732 -0.82396638 2.3591535
1.4108231 -0.80402809 2.3296597
1.4146981 -0.82417536 2.3292549
1.4101284 -0.80283552 2.2982945
1.4143414 -0.82427078 2.2995586
1.4362848 0.73120815 2.2495358
1.4096735 -0.80126256 2.2682364
1.4143453 -0.82491511 2.2694807
1.436573 0.72679955 2.2320728
1.4355624 0.71425611 2.2247214
1.4092994 -0.79856533 2.2390714
1.4144449 -0.82463562 2.239291
1.4379869 0.72527432 2.2027025
1.4360912 0.70571494 2.2017653
1.4341409 0.68073881 2.1943781
1.4061468 -0.77904445 2.1991262
1.4091766 -0.7955175 2.2096837
1.4148693 -0.82452434 2.2084901
1.4382551 0.70519316 2.1719468
1.435571 0.67503738 2.1723332
1.433445 0.64676303 2.1680799
1.43186 0.62236089 2.1625087
1.4060745 -0.77491736 2.176774
1.4097302 -0.79396051 2.1788006
1.4155288 -0.82434112 2.1792829
1.4407485 0.70485121 2.1423566
1.4387155 0.67500699 2.1415613
1.4364114 0.64498037 2.1420999
1.4340198 0.61477524 2.1421506
1.4319317 0.58659768 2.1406403
1.4303498 0.55672628 2.1352363
1.4288976 0.53125495 2.1315234
1.4062753 -0.76950634 2.1479392
1.4110339 -0.79468638 2.1486797
1.4166412 -0.82512856 2.1495781
1.4420552 0.67476964 2.1120548
1.4404809 0.64480448 2.1114378
1.4386404 0.61488497 2.1119382
1.4366453 0.58482772 2.1124575
1.4343972 0.55528015 2.1136606
1.4321761 0.52502012 2.1136942
1.4303157 0.49596497 2.1120205
1.4289072 0.46620727 2.1080136
1.4273925 0.436313 2.1043556
1.4257731 0.40844521 2.1015377
1.4042115 -0.74689931 2.1103759
1.4071155 -0.76566875 2.1195254
1.4126701 -0.79581684 2.1189592
1.4178324 -0.82491851 2.119261
1.4458239 0.67458069 2.0814047
1.4448044 0.64438349 2.0814173
1.4435928 0.61443955 2.081912
1.4424441 0.5844416 2.0813282
1.440757 0.5542227 2.0826485
1.4392161 0.52453357 2.0826283
1.4373145 0.49465922 2.0833349
1.4352846 0.46472844 2.0837522
1.4329631 0.43473244 2.0844834
1.4308958 0.40470159 2.0836627
1.4285784 0.37549779 2.0832827
1.4270675 0.34544918 2.0796752
1.4252934 0.31576216 2.0765364
1.4235711 0.28717041 2.0731034
1.4218535 0.26273185 2.0704591
1.4046686 -0.73956716 2.0866535
1.4089377 -0.76475847 2.089344
1.4141486 -0.79454011 2.0888438
1.4500613 0.70425898 2.0509853
1.4498298 0.67409563 2.0508242
1.449374 0.64444846 2.0516572
1.4490132 0.61432922 2.0511491
1.448313 0.58446521 2.0518239
1.4476225 0.5544064 2.0516286
1.4467022 0.52431953 2.051738
1.4455392 0.49433166 2.0520344
1.4439645 0.46423867 2.0530086
1.4422917 0.43432814 2.0534821
1.4406822 0.40438801 2.0530028
1.4383404 0.37475067 2.0540016
1.4359379 0.34451354 2.0542397
1.4332278 0.31447074 2.0545335
1.4306157 0.28453967 2.0537994
1.4273396 0.25480831 2.0540185
1.4251547 0.22515602 2.0507631
1.4227548 0.19584586 2.0475011
1.4203355 0.16845131 2.0443406
1.4182694 0.14769515 2.0422182
1.4032199 -0.71368957 2.0531101
1.4063098 -0.73516077 2.058337
1.4112747 -0.76519477 2.0589962
1.4161518 -0.79528546 2.0595078
1.4534104 0.70396388 2.0216479
1.4538293 0.67403758 2.0216405
1.4541054 0.64472562 2.0220196
1.4537945 0.61478341 2.0250564
1.4534597 0.5842967 2.0268912
1.4529841 0.55398136 2.0282748
1.452491 0.52422607 2.0287793
1.4519746 0.49410817 2.0285451
1.4510314 0.46425349 2.0290377
1.4500611 0.43404138 2.0287468
1.4489815 0.40379781 2.0280271
1.4476273 0.37338576 2.0272889
1.4458184 0.34397498 2.0271664
1.4445014 0.31400472 2.0248356
1.4421971 0.28461021 2.0243442
1.4393017 0.25435892 2.024209
1.4357879 0.22438696 2.0247083
1.4324996 0.19439159 2.0237753
1.4278164 0.16435045 2.0253172
1.4242406 0.13480021 2.0237703
1.4211304 0.10592362 2.0208795
1.4184062 0.076893844 2.0166917
1.4161401 0.052340601 2.0128675
1.4022856 -0.6841417 2.019686
1.4045563 -0.70603114 2.0289321
1.4091477 -0.73546845 2.028806
1.4138229 -0.76544738 2.0284917
1.4183068 -0.79543847 2.0292361
1.4226367 -0.82466823 2.0287662
1.455653 0.72568518 1.996037
1.4559245 0.70574903 1.9995028
1.456182 0.67988455 2.0036335
1.4482918 0.27567837 2.0073318
1.4468343 0.25212947 2.0054843
1.4449809 0.22308071 2.0026257
1.4427135 0.19352472 1.9997579
1.4406691 0.16351441 1.9954563
1.4369495 0.13423224 1.9944812
1.432369 0.10409966 1.9945672
1.4273691 0.074647784 1.9953773
1.4223022 0.044214372 1.9956781
1.41903 0.015279356 1.9922546
1.4163353 -0.013106575 1.9876215
1.4137144 -0.040434662 1.9832289
1.4021468 -0.65374023 1.9889848
1.4040534 -0.67676347 1.9976063
1.4078453 -0.70538741 1.9993352
1.4120438 -0.73498285 1.99947
1.4165301 -0.76570857 1.9981501
1.4206471 -0.79565662 1.9985406
1.4246581 -0.82578021 1.9993112
