# .PCD v0.7 - Point Cloud Data file format
VERSION 0.7
FIELDS x y z
SIZE 4 4 4
TYPE F F F
COUNT 1 1 1
WIDTH 1569
HEIGHT 1
VIEWPOINT 0 0 0 1 0 0 0
POINTS 1569
DATA ascii
1.5252397 0.63310027 2.1738994
1.5274609 0.61279583 2.1818163
1.5317512 1.8551445 2.1460159
1.5266666 1.8319087 2.1445534
1.5237544 1.8026654 2.1448958
1.5212941 1.7725273 2.1447418
1.5188866 1.7425669 2.14533
1.5170879 1.7180463 2.1491334
1.5040153 0.92321551 2.1354489
1.5052058 0.90230656 2.1435206
1.5075629 0.87301069 2.1434937
1.5100297 0.84267718 2.1430256
1.5124536 0.81246698 2.1431031
1.5148327 0.78294969 2.1430023
1.5172526 0.75252271 2.1434264
1.519698 0.72217232 2.1433346
1.5220754 0.69254458 2.1434107
1.5245003 0.66280639 2.1434884
1.5270298 0.63969719 2.1473274
1.5266474 1.8524874 2.1154649
1.5246667 1.8326689 2.1152942
1.5221977 1.8025576 2.1149416
1.5197518 1.7725998 2.1147857
1.5176226 1.7450966 2.1168842
1.5165719 1.7252588 2.1277928
1.503996 0.94935906 2.1011615
1.5048856 0.93059587 2.1113408
1.5069761 0.9029274 2.1135447
1.5094314 0.87274134 2.1130762
1.5118196 0.84263706 2.1136069
1.5142248 0.81289572 2.1133697
1.516665 0.78252703 2.1133888
1.519115 0.75203961 2.1134081
1.5214895 0.72248775 2.1134267
1.5238733 0.69282264 2.1134453
1.5265325 0.66584373 2.1155341
1.5287658 0.64711964 2.1264362
1.5247163 1.8515493 2.0865347
1.5231013 1.8325351 2.0852342
1.5206754 1.8026822 2.0852878
1.518328 1.7733625 2.0860276
1.5170428 1.7529212 2.0933478
1.5046787 0.95647669 2.0805166
1.506393 0.9327274 2.0837169
1.5088015 0.90279305 2.0836778
1.5112199 0.87273967 2.0836384
1.5136477 0.84256947 2.0835989
1.5160538 0.81286258 2.0833063
1.5184677 0.78248322 2.0837712
1.5209043 0.75239325 2.0834806
1.5232853 0.72280419 2.083442
1.5259205 0.6936633 2.0838964
1.5282009 0.6739102 2.0921192
1.5230647 1.8507777 2.0557971
1.5215999 1.8327856 2.0557797
1.5191846 1.8029549 2.0560179
1.5175443 1.7803501 2.0598624
1.5046287 0.98254478 2.0468256
1.505808 0.96266961 2.0537312
1.5081537 0.93309367 2.0542326
1.5106208 0.90280354 2.0537083
1.5130129 0.87273866 2.0541239
1.515422 0.84303689 2.0537705
1.5178659 0.81270826 2.0536718
1.5203196 0.78226066 2.0535727
1.522698 0.75274765 2.0534766
1.5251986 0.72297341 2.0532472
1.5276937 0.70063913 2.0579877
1.5215379 1.85052 2.0266523
1.5200934 1.832956 2.0263622
1.5180788 1.8067853 2.0285804
1.5045784 1.0089811 2.0126634
1.5054467 0.9904536 2.0228844
1.5075763 0.96274889 2.0244865
1.5099896 0.93285465 2.0243309
1.5124117 0.90284121 2.0241747
1.5148433 0.8727107 2.0240178
1.5172702 0.84282029 2.0236273
1.5196894 0.81247807 2.0239441
1.5221117 0.78265309 2.0235491
1.5244974 0.75310332 2.0233953
1.5272621 0.72664267 2.0255973
1.5199652 1.8496009 1.9976728
1.5186983 1.8345524 1.9968508
1.5176477 1.8150105 2.0072892
1.5053039 1.0165839 1.9906502
1.5069559 0.9932915 1.9942856
1.5093378 0.96322536 1.9948614
1.511812 0.9329049 1.994264
1.5142071 0.90287894 1.9945642
1.5166204 0.87321693 1.9940941
1.5190685 0.84292811 1.9938773
1.5215265 0.81252098 1.9936596
1.5239083 0.78304684 1.9934485
1.5266708 0.75384712 1.9940535
1.5289464 0.73410952 2.0036778
1.5184093 1.8492161 1.9681669
1.5180843 1.8425009 1.9724485
1.505266 1.0434055 1.9557794
1.5064441 1.0230641 1.9632994
1.5088749 0.99257916 1.9636347
1.5111839 0.96319401 1.964512
1.5136052 0.93298125 1.9646344
1.516041 0.9028908 1.96436
1.5184846 0.87275112 1.9640183
1.5209308 0.84242958 1.9638795
1.5233206 0.81295264 1.9635397
1.5259483 0.78292787 1.9629905
1.5284083 0.76112896 1.9690908
1.505182 1.0700877 1.9218454
1.5061045 1.0507481 1.932256
1.5082632 1.0230625 1.9333593
1.5106548 0.9932996 1.933372
1.5130682 0.96294296 1.9338179
1.5154164 0.93290913 1.9349072
1.5178584 0.90312713 1.9341223
1.5202825 0.87290007 1.934211
1.5227338 0.84282053 1.9336689
1.5251536 0.81322992 1.9332083
1.5279449 0.78767878 1.9357889
1.5059019 1.0769918 1.9008663
1.5075884 1.0534694 1.9042343
1.5100752 1.0229578 1.9036617
1.512496 0.9931407 1.9032682
1.5148678 0.96318412 1.9038743
1.5172397 0.93311 1.9046251
1.5196891 0.9029395 1.9042311
1.5221481 0.87265062 1.9038357
1.5245314 0.8432914 1.9034524
1.5273713 0.81441629 1.9042451
1.5298965 0.79461837 1.913649
1.5058146 1.1032994 1.867471
1.5070471 1.0827501 1.8743792
1.5094571 1.0530883 1.8739531
1.5118484 1.0233686 1.8739239
1.5143453 0.99290848 1.87313
1.5166917 0.96283466 1.8743056
1.5190915 0.93301344 1.8742632
1.521517 0.90282762 1.8742875
1.5239431 0.87315929 1.8736001
1.5266237 0.84316194 1.8731472
1.5292079 0.82179892 1.8795451
1.5058359 1.1301029 1.8316491
1.5066699 1.11133 1.8427684
1.5087729 1.0835683 1.8448893
1.5112643 1.053098 1.8441961
1.5136997 1.0232444 1.843613
1.5161152 0.99342245 1.843307
1.5184671 0.9631955 1.8445923
1.5208935 0.93323797 1.8443003
1.5233564 0.90298951 1.8437856
1.5258327 0.87321401 1.8430152
1.5286572 0.84811109 1.8467767
1.5065407 1.1372528 1.8105738
1.5082486 1.1131444 1.8143673
1.510653 1.0831537 1.8144808
1.513044 1.0534756 1.8143888
1.5155455 1.0229874 1.8135694
1.5179349 0.99323517 1.8136023
1.5203096 0.96295226 1.8145822
1.5227702 0.93278205 1.814009
1.5251753 0.90338123 1.8133187
1.5280176 0.87507784 1.8149134
1.5305291 0.85510588 1.8254366
1.5064776 1.1630367 1.7774897
1.507724 1.1430473 1.7834284
1.5100195 1.1136614 1.7845254
1.5124545 1.0832771 1.784654
1.5149213 1.0532371 1.7838035
1.5173321 1.0233999 1.7835979
1.5197463 0.99301809 1.7840602
1.5221189 0.96314275 1.7845374
1.5245664 0.93336821 1.7836577
1.5272819 0.90346825 1.7835912
1.5301092 0.88173699 1.7905294
1.5063679 1.1908128 1.7425343
1.5072976 1.1715374 1.7527332
1.5095066 1.1433074 1.7537454
1.5119008 1.1131195 1.75427
1.5142475 1.0835485 1.7547711
1.5167421 1.053247 1.7538103
1.5191395 1.023603 1.7535694
1.5215243 0.99322271 1.7545235
1.5239785 0.96316051 1.7538997
1.5264577 0.93336332 1.7533062
1.5294524 0.90857029 1.7572114
1.5071244 1.1970384 1.7218295
1.5088772 1.1733954 1.7242799
1.5112804 1.1437999 1.7238795
1.5136729 1.113323 1.7248279
1.5161433 1.0832011 1.7240193
1.5185533 1.0534066 1.7237821
1.5209799 1.0229118 1.7241824
1.5233623 0.99314618 1.7243654
1.5258319 0.96332675 1.7231808
1.5287701 0.93518192 1.7257059
1.5313179 0.91591561 1.7358946
1.5070325 1.2245486 1.6869354
1.5082344 1.2036276 1.6948423
1.510693 1.1734862 1.6942598
1.5131488 1.1434238 1.6936109
1.5154632 1.1135848 1.6950054
1.5179408 1.083546 1.693974
1.520363 1.0536971 1.6936017
1.522728 1.0234536 1.6946924
1.5251889 0.99357861 1.6937125
1.5279826 0.96391428 1.6937736
1.5307361 0.94292617 1.7013669
1.5070215 1.2508321 1.6523322
1.5079472 1.231612 1.6625333
1.5100752 1.2034278 1.6647913
1.5124804 1.1738737 1.6643176
1.5149032 1.1437826 1.6642587
1.5173569 1.1132122 1.6643245
1.5197768 1.0835129 1.6637876
1.5221822 1.0530813 1.6644582
1.524601 1.0233335 1.664011
1.5271047 0.99350446 1.6636844
1.5302515 0.9693734 1.6672242
1.5077274 1.2580373 1.6311746
1.5094541 1.2341609 1.634353
1.5118816 1.203704 1.6346979
1.5143696 1.1734185 1.6338174
1.5167423 1.1433029 1.6346153
1.5191449 1.1137425 1.6341809
1.5216023 1.0834857 1.6337689
1.523968 1.0534304 1.634603
1.526437 1.023586 1.6334708
1.5295193 0.9956826 1.6360509
1.5320621 0.9771409 1.646023
1.5076638 1.2837927 1.5981326
1.508956 1.2632177 1.6040838
1.5113392 1.2332886 1.6044707
1.5137138 1.2037606 1.604449
1.5161139 1.1740243 1.6042973
1.5185597 1.1434085 1.6045504
1.5209856 1.1137993 1.6037991
1.5233784 1.0834751 1.6045381
1.5258313 1.0536366 1.6036488
1.5286864 1.0239247 1.6045598
1.5315008 1.0039128 1.6117135
1.507635 1.3101549 1.5637183
1.5085384 1.2916563 1.5733185
1.51068 1.2643282 1.5742308
1.513098 1.2337909 1.574849
1.5155739 1.2035885 1.5740527
1.5180013 1.1731453 1.5743845
1.5203677 1.1437594 1.5743142
1.5228176 1.1133018 1.5742995
1.5252233 1.0835085 1.5741193
1.5277793 1.0536799 1.5738904
1.5309488 1.0305403 1.5776536
1.5083296 1.3179628 1.5419548
1.5101233 1.2935662 1.5447074
1.5125659 1.2635448 1.5442278
1.5149548 1.233616 1.5445035
1.5173266 1.2042077 1.5443798
1.5197604 1.173786 1.5445776
1.5222208 1.1437881 1.5437729
1.5245959 1.1135787 1.5446522
1.5270603 1.0836792 1.5437806
1.5302764 1.0564016 1.5462208
1.5326574 1.0381688 1.5572653
1.5083535 1.3442713 1.5067298
1.5095184 1.3237455 1.5147297
1.5119131 1.2941737 1.5144348
1.5143162 1.2639198 1.5149109
1.5167699 1.2339257 1.5142154
1.519224 1.2032228 1.5144447
1.5215909 1.1739471 1.5142256
1.5240157 1.1435871 1.5144808
1.5264595 1.1137424 1.5137537
1.5294116 1.0842543 1.514931
1.5322369 1.0647449 1.5224371
1.5082077 1.3715577 1.4730203
1.5091512 1.3523469 1.482913
1.5113274 1.3237015 1.4849851
1.5137672 1.2938783 1.4842961
1.5161905 1.2635159 1.4845855
1.5185673 1.2341239 1.4843578
1.5209665 1.2040608 1.4846485
1.523443 1.1735866 1.4842074
1.5258455 1.143685 1.4842253
1.5284801 1.113794 1.484082
1.5316863 1.0913258 1.4883555
1.5089834 1.3781598 1.4515132
1.5107349 1.354109 1.4545069
1.5131418 1.3240364 1.4546747
1.5155276 1.2941639 1.4549464
1.517967 1.2643023 1.4543011
1.5204262 1.2334335 1.454663
1.5228454 1.2038736 1.4539609
1.5252284 1.1736965 1.4546685
1.5276939 1.1437793 1.4540292
1.5310327 1.1171641 1.4564973
1.5088501 1.4045455 1.4187808
1.5101444 1.3841019 1.4245367
1.5125475 1.353931 1.4248929
1.514972 1.324168 1.4243737
1.5174153 1.2934885 1.4247479
1.5198404 1.263829 1.4240782
1.5221915 1.2341576 1.4246424
1.5246456 1.2036986 1.4245553
1.5270796 1.1738832 1.4239393
1.5301985 1.1445125 1.4251926
1.5329218 1.1248101 1.4345217
1.5087278 1.4296156 1.3876114
1.5097886 1.4115512 1.3940721
1.5119549 1.3842194 1.3945584
1.5143754 1.3539405 1.3947923
1.5167817 1.3241067 1.3946564
1.5191586 1.2945383 1.3946595
1.5216225 1.2639087 1.3946242
1.524062 1.2338954 1.3941951
1.5264473 1.2040143 1.3944695
1.5292265 1.1738204 1.3942374
1.5324008 1.1519539 1.3994668
1.5113417 1.4065728 1.3750758
1.5137645 1.3824136 1.3671637
1.5161657 1.3545433 1.3645186
1.5186208 1.323858 1.3647017
1.5210603 1.2936627 1.3645083
1.5234624 1.2639943 1.3642315
1.5258522 1.2338794 1.3647437
1.5283399 1.2039199 1.3642244
1.531774 1.1780579 1.3668754
1.5157117 1.3725538 1.3481531
1.5179366 1.3507369 1.3403976
1.5204111 1.3242596 1.3347034
1.5228244 1.2941802 1.3347795
1.5252694 1.263993 1.334475
1.5276966 1.2340589 1.334142
1.5309339 1.2050632 1.3356082
1.5335814 1.1855922 1.3457456
1.5223036 1.3165115 1.3138012
1.5244217 1.2935774 1.3092813
1.5268219 1.2640212 1.3088865
1.5297028 1.2336359 1.3074219
1.5331522 1.212443 1.3105825
1.5753899 1.5513256 2.8548326
1.5703251 1.5315245 2.8540883
1.5626663 1.5021188 2.8521674
1.5566423 1.4792166 2.8503215
1.5343312 0.10941669 2.847645
1.539324 0.088305146 2.8491025
1.5460584 0.059945941 2.8509057
1.5507908 0.039677382 2.8526471
1.5765067 1.5772964 2.8230107
1.5734379 1.5580873 2.8332365
1.5668271 1.5304995 2.8348455
1.5593889 1.5007048 2.8348064
1.5519384 1.4709259 2.8346765
1.5467588 1.4486651 2.8368921
1.5246643 0.1678305 2.8202796
1.5276425 0.14930838 2.8294487
1.5342098 0.12121564 2.8318181
1.5416887 0.090962797 2.8320808
1.5485536 0.062159359 2.8337688
1.5516837 0.042615861 2.8435113
1.5747887 1.5847859 2.8017242
1.5692792 1.5604948 2.8049905
1.5617851 1.5306165 2.8047466
1.554336 1.5007266 2.8047857
1.5480229 1.4737959 2.8071885
1.5450088 1.4539198 2.8187265
1.526612 0.17495129 2.7993579
1.5321488 0.15064475 2.8022254
1.5396004 0.12066507 2.8022609
1.5469962 0.09100616 2.8021591
1.551105 0.070167303 2.8082085
1.5758957 1.6116353 2.7685437
1.5716546 1.5903485 2.7748888
1.5642308 1.5606039 2.7748642
1.5567983 1.5307583 2.7749383
1.5496862 1.5018823 2.7754748
1.5462441 1.4819953 2.784493
1.5260323 0.20171323 2.7651646
1.5299098 0.18110606 2.7721894
1.5373213 0.15130642 2.7721999
1.5449163 0.12080413 2.7721596
1.5503908 0.096423835 2.7754803
1.5769229 1.6392791 2.7337141
1.5736251 1.6192368 2.7438145
1.5666645 1.5907117 2.7447312
1.5592901 1.5609214 2.7450693
1.5517988 1.5310388 2.7448499
1.5471365 1.5089746 2.7498436
1.5254084 0.22902974 2.7304444
1.5283798 0.20938551 2.7412214
1.5352436 0.18098482 2.7423508
1.5427721 0.15083638 2.7421918
1.54943 0.12300664 2.7436836
1.5525224 0.10379359 2.7531745
1.5751669 1.6465091 2.7125874
1.569127 1.6207334 2.7149017
1.5616705 1.5909294 2.7147722
1.5542225 1.5608765 2.7150571
1.5482577 1.535308 2.7175136
1.5274615 0.2357989 2.7094223
1.5330502 0.21114522 2.7124839
1.5405529 0.18112817 2.7122834
1.5479243 0.15124324 2.7126384
1.5517646 0.13065013 2.7198501
1.5763267 1.6730678 2.6801496
1.5715859 1.6506944 2.6851377
1.5640723 1.620739 2.6848922
1.5566559 1.5909401 2.6849923
1.5497857 1.5626485 2.6861002
1.5466974 1.5435039 2.6961169
1.5266562 0.26291239 2.6760049
1.530839 0.24146581 2.6824892
1.5383743 0.21116298 2.6825044
1.5459433 0.18094409 2.6822147
1.5512662 0.15734148 2.6853008
1.5773807 1.7001544 2.6463034
1.5736971 1.6799599 2.6543393
1.5665483 1.6508313 2.6550362
1.5591073 1.6210146 2.6550145
1.551688 1.5912608 2.6550281
1.5476243 1.5706317 2.6614552
1.5261357 0.29027706 2.6406364
1.5293411 0.26977465 2.6512978
1.5363145 0.2409991 2.6523361
1.5437381 0.21113545 2.6523664
1.5502397 0.1836558 2.6542454
1.5530534 0.16441503 2.6653466
1.5753798 1.7077961 2.6231151
1.5689729 1.6807986 2.6250582
1.5615513 1.6509929 2.6251361
1.5540515 1.6210746 2.6249206
1.5486274 1.5970819 2.6282487
1.5282135 0.29693592 2.6196303
1.5339522 0.27160123 2.6228004
1.5415572 0.24123281 2.6225169
1.5489782 0.21129391 2.6226683
1.552582 0.190961 2.6308465
1.5766397 1.7342211 2.5914674
1.5714458 1.71092 2.5951376
1.5640203 1.681054 2.5952835
1.5565326 1.6511765 2.5950785
1.5499316 1.6236101 2.5967143
1.5468746 1.6037948 2.6079073
1.527424 0.32351857 2.5868654
1.5318856 0.30147702 2.5926118
1.5394695 0.27112857 2.5924206
1.5468806 0.24131545 2.5924525
1.551922 0.21822587 2.5964031
1.5776541 1.7607828 2.5581644
1.5737106 1.7404584 2.5648479
1.5664138 1.7109662 2.5652072
1.5589648 1.6811022 2.5652092
1.5516202 1.6515795 2.5653243
1.5478636 1.6310476 2.5734279
1.5269372 0.34962445 2.5530703
1.5302207 0.33035284 2.5615702
1.5371455 0.3015914 2.5628633
1.5447975 0.27114421 2.562423
1.5511962 0.24398828 2.5644314
1.5539317 0.2245968 2.5761805
1.5785978 1.7878894 2.5236325
1.5755678 1.76893 2.5337198
1.5688984 1.741084 2.5353625
1.5613883 1.7111342 2.5351293
1.5538938 1.6811202 2.5350852
1.5488994 1.658394 2.5390878
1.528944 0.35798389 2.5300798
1.5350261 0.33170992 2.5326374
1.5425836 0.30136287 2.5325897
1.5497141 0.27238816 2.533026
1.5531428 0.25249684 2.5415733
1.576968 1.7957259 2.5023549
1.5712843 1.7710611 2.5051408
1.5638591 1.7412001 2.5052795
1.5563352 1.7111444 2.5051241
1.5501364 1.6846577 2.5075469
1.5475013 1.6659273 2.5196371
1.5282617 0.38309255 2.4987803
1.5330039 0.36131072 2.5025847
1.5403756 0.33144134 2.5029144
1.5480878 0.30088657 2.5022879
1.5528458 0.27828133 2.5071573
1.5780132 1.8221489 2.4694407
1.5737208 1.8010037 2.4752688
1.5662524 1.7711672 2.4751167
1.5588027 1.7412239 2.4752338
1.5517586 1.7124729 2.4759903
1.5483618 1.6924419 2.4854879
1.5276428 0.4101786 2.4643533
1.5310037 0.39118809 2.4720237
1.5381742 0.36190516 2.4726639
1.5457461 0.33156547 2.4725301
1.5518596 0.30520305 2.4750278
1.5790815 1.8489822 2.4360545
1.5757422 1.829928 2.4444442
1.5686722 1.8011523 2.4450862
1.5613008 1.7714103 2.4453666
1.5538878 1.7417029 2.4453573
1.5492357 1.7195071 2.4506061
1.5271436 0.43751651 2.4289036
1.5299591 0.41773534 2.4407456
1.5361887 0.39124334 2.4427795
1.5436175 0.36135745 2.4428086
1.550818 0.33209735 2.4432492
1.5539892 0.31251603 2.4528136
1.5772961 1.8574241 2.4129589
1.5710673 1.8309674 2.4151614
1.5637177 1.8013883 2.4153328
1.5563816 1.7718568 2.4155126
1.5504049 1.7461125 2.4181552
1.5289823 0.44413024 2.4093018
1.5338407 0.42206818 2.412847
1.5413767 0.39193213 2.4126284
1.5488719 0.361736 2.4127209
1.5534645 0.33990264 2.417438
1.5784469 1.8834906 2.381196
1.5735507 1.8610792 2.3853147
1.5661575 1.8314558 2.3852949
1.5588218 1.8018686 2.3855622
1.5518215 1.7730309 2.3867054
1.5486513 1.7539301 2.3961716
1.5284101 0.47121143 2.3746216
1.5321095 0.45064634 2.3825896
1.5392874 0.4216097 2.3828478
1.5467188 0.39188465 2.3826387
1.5527575 0.36560002 2.3854513
1.5754564 1.8887335 2.3556824
1.5685643 1.8612968 2.3553998
1.5612143 1.8317457 2.3555276
1.5536419 1.8014295 2.3554683
1.5496852 1.7809136 2.362359
1.5278505 0.49875438 2.3392231
1.5306218 0.47916585 2.3510468
1.5372263 0.45145118 2.3526783
1.5447075 0.42119926 2.3529263
1.5516511 0.3926689 2.3537939
1.5547271 0.37292898 2.3641133
1.5698338 1.8862667 2.3259659
1.5636811 1.8619063 2.3255148
1.5560644 1.8314155 2.3254502
1.5507116 1.808007 2.3283379
1.5297881 0.50532907 2.3191237
1.5350159 0.4814494 2.323133
1.5424513 0.45176303 2.3228486
1.5499103 0.42195621 2.3225946
1.554265 0.40011963 2.3286598
1.5642872 1.8836985 2.2968476
1.5584826 1.8613719 2.2954497
1.5520085 1.8343779 2.2969899
1.5489582 1.8150036 2.3075712
1.529166 0.53234267 2.2848163
1.532882 0.51181227 2.2926447
1.5403476 0.48160774 2.2929127
1.5477389 0.45190266 2.2929037
1.5533668 0.42721686 2.2957909
1.5587298 1.8810605 2.2677681
1.5537256 1.8624413 2.2656369
1.5500103 1.8425198 2.2730789
1.5286474 0.55942678 2.2498298
1.5314835 0.54025781 2.2607012
1.5380242 0.51211816 2.2632828
1.5457247 0.48163766 2.2626214
1.5525529 0.45308566 2.2641654
1.5554255 0.43419117 2.274446
1.5537441 1.8785791 2.241853
1.5510004 1.8693711 2.2392008
1.5306017 0.56622487 2.2293196
1.535898 0.54252434 2.2326934
1.5433176 0.51214319 2.2334669
1.5510559 0.48164871 2.2326121
1.555045 0.46035561 2.23997
1.5492991 1.8752785 2.2203572
1.5297995 0.5929057 2.1964934
1.5337518 0.57274693 2.2024708
1.541175 0.54265815 2.2028172
1.5486498 0.51216847 2.2034364
1.5543116 0.48758006 2.2059941
1.5292804 0.61995745 2.1615541
1.5321671 0.60079038 2.1721396
1.5390195 0.57299858 2.1724839
1.5464906 0.54279298 2.1727264
1.5532755 0.5141415 2.1746514
1.5562656 0.49443382 2.1854112
1.5313541 0.62686896 2.1402142
1.5368577 0.6019206 2.14417
1.5448571 0.57104528 2.1423748
1.5519553 0.54221171 2.1427922
1.5556905 0.52201581 2.1500449
1.5307827 0.65321487 2.1065571
1.5348184 0.63183838 2.11377
1.5423454 0.60156828 2.1137874
1.5498844 0.57164234 2.113256
1.5552676 0.54780239 2.1163366
1.5302489 0.67966574 2.0725441
1.5332801 0.66048723 2.0823307
1.5402073 0.63189691 2.0833743
1.547667 0.60191482 2.083365
1.554242 0.57414299 2.0852425
1.5570672 0.5544576 2.0968974
1.532177 0.68760777 2.0505795
1.5380751 0.66212541 2.0530615
1.5455117 0.63235164 2.0528932
1.5528294 0.60273445 2.0531745
1.5564811 0.58247256 2.060987
1.5314884 0.7137332 2.0178938
1.5359505 0.6922543 2.0228486
1.5432565 0.6629039 2.0228221
1.5506631 0.63279331 2.023294
1.5558883 0.60950482 2.0264909
1.5309441 0.74067843 1.9832444
1.5341365 0.72153813 1.9920704
1.5410335 0.69289953 1.9933496
1.5486667 0.66250992 1.9929352
1.5549046 0.63527846 1.9959532
1.5577129 0.61616337 2.0069058
1.532855 0.74908912 1.960724
1.5390267 0.72256422 1.9631236
1.5464553 0.6921975 1.9638289
1.5538855 0.66241276 1.9637121
1.5572833 0.64264864 1.9722569
1.5320637 0.77499294 1.9289221
1.5368999 0.75239414 1.9333441
1.5443192 0.72236741 1.9336246
1.5518438 0.69231617 1.9333493
1.5567247 0.66996288 1.9371727
1.5315341 0.80163085 1.8946204
1.535023 0.7817378 1.9028345
1.5421324 0.75265318 1.9035422
1.5496774 0.72243404 1.9033878
1.5558884 0.69579452 1.9057274
1.5585921 0.67643023 1.9176155
1.5337359 0.80926979 1.8715463
1.5399317 0.78287518 1.8736241
1.5475216 0.75261033 1.8732811
1.5545293 0.72394371 1.8739758
1.5579288 0.70432776 1.8823042
1.5328344 0.83555037 1.839833
1.5377579 0.81307209 1.8435936
1.5454025 0.78256577 1.8432777
1.5527638 0.7528497 1.8434536
1.5574251 0.73066479 1.8482778
1.5322775 0.86259127 1.8051248
1.5358973 0.84229314 1.8131673
1.5433134 0.81242275 1.8132502
1.5506043 0.78273678 1.8137751
1.5568379 0.75611383 1.8159652
1.5318561 0.88927698 1.7701489
1.5346084 0.8700614 1.7815566
1.541082 0.84261954 1.7835431
1.5484408 0.81285071 1.7838061
1.5556313 0.78362995 1.7842467
1.5587578 0.7646271 1.7932509
1.5337602 0.89622378 1.7497153
1.5388024 0.87298346 1.7538732
1.546272 0.84310567 1.7536651
1.5537891 0.81295705 1.7535654
1.5581512 0.79197741 1.7583857
1.5331911 0.92306262 1.7153566
1.5367785 0.90283656 1.7234802
1.5441189 0.87313938 1.7237438
1.5517205 0.84282839 1.7234002
1.5574806 0.81748629 1.7264607
1.5325633 0.95054781 1.6804204
1.5353737 0.93100476 1.6919606
1.5420213 0.90298879 1.6937683
1.5495803 0.8728193 1.6934682
1.5564343 0.84421229 1.6949425
1.5595539 0.82481921 1.7045324
1.5344679 0.95706308 1.660585
1.5398865 0.93300694 1.6637697
1.5473865 0.90297633 1.6636006
1.5547682 0.87304074 1.6639717
1.5590228 0.85210526 1.669332
1.5338629 0.9837445 1.626651
1.5378155 0.96286643 1.6336341
1.5451742 0.93314373 1.6338321
1.5526395 0.90311921 1.6338508
1.5583303 0.87840462 1.6364225
1.5333376 1.0108913 1.5916123
1.5363069 0.99125791 1.6023865
1.5429748 0.96334827 1.6039329
1.5504628 0.9332521 1.6039252
1.5573075 0.90497732 1.6049902
1.5601356 0.88604438 1.6155746
1.5352892 1.0177066 1.5710967
1.5408088 0.99349475 1.5739259
1.5483394 0.96329689 1.5738232
1.5558405 0.93316001 1.5737981
1.5597079 0.91240269 1.5810913
1.534575 1.0440845 1.5381973
1.5387565 1.0232124 1.5438833
1.5462147 0.9931286 1.5440259
1.5537896 0.96296155 1.5436294
1.5591063 0.9392457 1.5469095
1.5340172 1.0707934 1.5039567
1.5371749 1.0518129 1.5127543
1.54403 1.0234048 1.5139481
1.5515403 0.99317986 1.5139933
1.5581157 0.96562862 1.5155575
1.5610402 0.94690454 1.5253103
1.5360901 1.078637 1.4813154
1.5419053 1.0534172 1.4838974
1.5493853 1.0232532 1.4840297
1.5567083 0.99364567 1.4842659
1.5604233 0.97334611 1.4917771
1.5352811 1.1050035 1.4489684
1.5397192 1.083631 1.4539094
1.5472381 1.0535033 1.4537742
1.5547007 1.0233326 1.4540137
1.5598303 1.000146 1.4576046
1.5347999 1.131717 1.4142907
1.5380057 1.1124573 1.4232099
1.5451105 1.0834574 1.423821
1.552559 1.0534139 1.4239664
1.5589378 1.0262792 1.426054
1.5618037 1.0070082 1.4368985
1.5368984 1.1396222 1.3914208
1.542882 1.113508 1.3943024
1.5504131 1.0835655 1.3938352
1.5575868 1.0541186 1.3946922
1.5613074 1.0340302 1.4018743
1.536135 1.1655421 1.3594376
1.5407337 1.1437182 1.3641117
1.5481766 1.113668 1.3642924
1.5557654 1.083425 1.3639237
1.5606607 1.0609323 1.3678617
1.5354925 1.1929173 1.3247423
1.5389317 1.1729517 1.3333375
1.5460594 1.143646 1.3342528
1.5535146 1.1136627 1.3342705
1.5597998 1.0870907 1.3360965
1.5377253 1.1993816 1.303134
1.5439289 1.1738002 1.3040353
1.5513486 1.1437938 1.3042855
1.5585575 1.1143583 1.3049262
1.5620731 1.0941131 1.313478
1.5481015 1.1687231 1.2876644
1.5551682 1.1419373 1.2853951
1.5609212 1.1196172 1.2842662
1.6067506 1.6734184 2.8602033
1.6013875 1.6506382 2.8620996
1.5935097 1.6205413 2.8599031
1.5858123 1.5907273 2.8583555
1.5794047 1.5661008 2.8567858
1.5546447 0.024181545 2.8526528
1.5604124 -0.00030004978 2.8544683
1.5674585 -0.029998124 2.8563874
1.5747023 -0.060279369 2.858011
1.5788993 -0.081192017 2.8636701
1.6077259 1.6994494 2.8274522
1.603905 1.6793523 2.8345301
1.5966082 1.6498687 2.8348706
1.5892195 1.6201979 2.8349459
1.5819347 1.5907127 2.8353612
1.5780296 1.5700681 2.8427501
1.5532869 0.050138801 2.8239646
1.5569781 0.030142218 2.8311844
1.5641969 0.0004273057 2.8321574
1.5718142 -0.029837012 2.8316567
1.577772 -0.055691004 2.8343229
1.6086609 1.7270312 2.7921665
1.605794 1.707956 2.80339
1.5991359 1.6802493 2.8048952
1.5917021 1.6503136 2.8050957
1.5841944 1.620365 2.8048744
1.5790838 1.5973247 2.8086526
1.5530057 0.076764822 2.7882831
1.5557268 0.057488233 2.7999585
1.5620817 0.030377328 2.8021398
1.569597 0.00036996603 2.8018556
1.5766232 -0.028467119 2.8026853
1.5797733 -0.047902584 2.8121645
1.6071408 1.7346687 2.7718327
1.6015565 1.7101063 2.7750573
1.5940816 1.6801819 2.7749972
1.5866166 1.6502912 2.7749429
1.5803138 1.6235502 2.7771266
1.5773653 1.6045725 2.7877228
1.5547423 0.08367756 2.7688417
1.5599428 0.060657948 2.7717996
1.5673854 0.030532122 2.7720857
1.5749851 0.00029093027 2.7716546
1.5792384 -0.021394253 2.778074
1.6082041 1.7609957 2.7391667
1.6038945 1.7398343 2.7449238
1.5964724 1.7100558 2.7449572
1.5890754 1.6802967 2.7451148
1.5819236 1.6512166 2.7457192
1.5784111 1.6311505 2.7545817
1.5541214 0.110957 2.7341542
1.5579313 0.090363473 2.741539
1.5652213 0.060504735 2.7423136
1.5728346 0.030386686 2.7416363
1.578601 0.0049251914 2.7448268
1.6090406 1.7881653 2.7039082
1.6058894 1.768689 2.7140365
1.5989749 1.7402934 2.7150438
1.5914855 1.7102742 2.715035
1.5840216 1.6803648 2.7150154
1.5794997 1.6585603 2.7204611
1.5537558 0.13699603 2.6997681
1.5565383 0.11803499 2.7106447
1.5631106 0.090712517 2.7119136
1.5705825 0.060625374 2.7119827
1.5775418 0.032001436 2.7128894
1.5804133 0.013189137 2.7230649
1.6074092 1.7961905 2.6823463
1.6014255 1.7703021 2.6851573
1.5939418 1.7403775 2.6850443
1.5865005 1.7105677 2.6850166
1.5806684 1.6850976 2.6881094
1.5555477 0.14464235 2.6789887
1.5609353 0.12090638 2.6818941
1.5684134 0.090560436 2.6822915
1.5759691 0.060590029 2.6817288
1.5798963 0.039769739 2.6887732
1.6086003 1.8223623 2.6506634
1.6038625 1.8002611 2.6552658
1.5963396 1.7702332 2.6550703
1.5888975 1.7404532 2.6549957
1.5820735 1.7120944 2.6564779
1.5788242 1.6926622 2.6659627
1.554947 0.17124227 2.6451404
1.5589077 0.15044057 2.6519709
1.5662969 0.12053537 2.6522481
1.5738276 0.090602547 2.6517735
1.5793459 0.065955162 2.6552231
1.6094359 1.8491626 2.615947
1.6059846 1.8294072 2.6247101
1.5987772 1.8002737 2.6250634
1.5913513 1.7704535 2.625144
1.5839145 1.7405894 2.6252186
1.5798721 1.7198045 2.6319985
1.5543844 0.19844231 2.6102376
1.5573015 0.17917985 2.6207879
1.5641285 0.1510002 2.6218135
1.5716143 0.12071842 2.6220789
1.5784012 0.09235391 2.6235936
1.5814488 0.073853463 2.632339
1.6107695 1.8771217 2.582468
1.6076274 1.8574553 2.5929368
1.6012979 1.8305217 2.5952435
1.5938327 1.8006234 2.5952017
1.5863857 1.7707487 2.5952325
1.5808861 1.7464745 2.5985301
1.5563972 0.20550531 2.5890284
1.5619593 0.18088207 2.5921967
1.5694343 0.15065745 2.5924439
1.5768522 0.12109253 2.592087
1.5806776 0.10075605 2.5990264
1.6089672 1.8837727 2.561924
1.6037499 1.860649 2.565192
1.5963023 1.8307446 2.5652657
1.5888184 1.8007399 2.565269
1.5822195 1.7731174 2.5669975
1.5792967 1.7542181 2.577632
1.5557008 0.23158845 2.5564399
1.5598603 0.21059433 2.5624208
1.567269 0.18097964 2.5621891
1.5747834 0.15097752 2.5619063
1.5801399 0.12675038 2.5656726
1.6098585 1.9105017 2.5276401
1.6060147 1.8899869 2.5351975
1.5986832 1.8605087 2.5353277
1.5912371 1.8306745 2.5353022
1.5839725 1.801347 2.5356088
1.5802983 1.7816076 2.5430264
1.5551915 0.25873056 2.521323
1.5581602 0.23997581 2.5308659
1.5650195 0.21137589 2.532304
1.5726541 0.18077129 2.532181
1.5792885 0.15275127 2.5340738
1.5821908 0.13373575 2.5443592
1.6074898 1.9164969 2.504709
1.6011517 1.8905704 2.5054741
1.5936884 1.8607198 2.5053713
1.5862261 1.8308893 2.5052459
1.5811936 1.8080409 2.5092049
1.5572631 0.26594704 2.4995728
1.5630955 0.24052566 2.5023336
1.5705618 0.21045443 2.5024157
1.5778277 0.18116552 2.5025256
1.5815403 0.16127133 2.5094824
1.6022117 1.9149336 2.4756916
1.5961465 1.8906243 2.4756842
1.588688 1.8608843 2.4754488
1.5823145 1.8340361 2.4773686
1.5563728 0.29312977 2.4665327
1.5606818 0.27154568 2.4725022
1.5682441 0.24129882 2.4722826
1.5757591 0.21125919 2.4720483
1.5808455 0.18786877 2.4761691
1.5964724 1.9121745 2.4457135
1.5911654 1.8908533 2.4457817
1.584039 1.8619634 2.4462566
1.5805342 1.842559 2.4541857
1.5558591 0.31909084 2.4330919
1.5591195 0.30014673 2.4412673
1.5660872 0.27136779 2.4423394
1.5736398 0.24102527 2.442313
1.5800428 0.21371716 2.4445081
1.5828117 0.19440389 2.4559593
1.5908811 1.9094768 2.4165235
1.5861775 1.8910979 2.4158177
1.5815138 1.8691257 2.4206672
1.5579561 0.32680774 2.4104896
1.5641333 0.3006942 2.4122901
1.5716659 0.27045354 2.4122317
1.5788503 0.24101615 2.4130118
1.5823305 0.22109938 2.4213064
1.5862955 1.9072201 2.3926473
1.5827552 1.8957872 2.3885632
1.5572236 0.35358286 2.377141
1.5616722 0.33172879 2.3827024
1.569115 0.30182236 2.3826845
1.576722 0.271698 2.3820434
1.5815563 0.24898884 2.3866308
1.5807079 1.901668 2.3677049
1.5566126 0.37955528 2.3442321
1.5601273 0.36023748 2.3514934
1.5671511 0.33117992 2.352643
1.5746251 0.30124938 2.3524842
1.5808684 0.27450442 2.3547907
1.5836333 0.25503966 2.3664765
1.5560259 0.4075141 2.3084047
1.5586076 0.38852075 2.3204656
1.5650302 0.36140591 2.3222761
1.5725778 0.33070296 2.3227816
1.5797957 0.30150345 2.3230405
1.5829608 0.2820209 2.3324983
1.5580533 0.41394937 2.2879899
1.5627559 0.39155078 2.292882
1.5702354 0.36182594 2.2924049
1.5776149 0.33180004 2.2929068
1.5825758 0.3094708 2.2962492
1.5573355 0.4411675 2.2539382
1.5610089 0.42072147 2.2618845
1.5682334 0.39113638 2.2626479
1.5755631 0.36163276 2.2626984
1.5816947 0.33537501 2.2649529
1.556905 0.46776015 2.2191434
1.5595158 0.44894686 2.2307801
1.5659175 0.42157304 2.2330787
1.5737433 0.39080489 2.2321129
1.5805522 0.36227989 2.2337275
1.5838264 0.34294698 2.2423632
1.5589111 0.47420198 2.1988397
1.5639528 0.45132199 2.2024961
1.5711159 0.42211175 2.2030785
1.5788291 0.39145279 2.2025914
1.5832598 0.36932075 2.2086408
1.5581392 0.50141674 2.1650965
1.5618594 0.48106045 2.1726546
1.5693833 0.45087132 2.1725793
1.5766534 0.42180726 2.1723523
1.5824032 0.39631593 2.1756794
1.5575511 0.52949417 2.1291108
1.5604188 0.50962818 2.1407852
1.5670333 0.48133314 2.1431637
1.5745575 0.45136574 2.1427751
1.5814865 0.42290515 2.1436238
1.584519 0.40407944 2.1529112
1.5593833 0.53606319 2.1096079
1.564682 0.51224434 2.1131351
1.5723264 0.48202863 2.1124141
1.5797839 0.45202342 2.1124496
1.5839506 0.43030041 2.1194108
1.5589653 0.56176114 2.0759964
1.5626421 0.54188937 2.0831192
1.5699724 0.51226938 2.0833371
1.5775703 0.48233035 2.0824866
1.5832577 0.45767993 2.0849915
1.5583538 0.58955973 2.0405338
1.5613687 0.56993866 2.0510266
1.5680524 0.5421347 2.0523405
1.5753152 0.51213354 2.0534663
1.582255 0.48356798 2.0544038
1.5851877 0.46490005 2.0640287
1.5602397 0.59668696 2.0199461
1.5658805 0.57209122 2.0226359
1.5736173 0.54110807 2.0224702
1.5808501 0.51141644 2.0233331
1.5846324 0.49113455 2.0304382
1.5598208 0.62291741 1.9855975
1.5636299 0.60227549 1.9930543
1.5710099 0.57260829 1.9930524
1.578764 0.54137623 1.9931371
1.5841967 0.51728982 1.9962838
1.5591948 0.64988065 1.9513817
1.5621866 0.63007444 1.9622747
1.5691572 0.60184634 1.9625591
1.5765188 0.5719564 1.9629722
1.5831283 0.54412532 1.9647378
1.5860914 0.52396834 1.9762785
1.5611074 0.65733504 1.9301902
1.5668843 0.63196892 1.933188
1.5744184 0.60157531 1.933338
1.581833 0.57199675 1.933018
1.5854768 0.55255067 1.9397355
1.5603613 0.68414116 1.8968703
1.5645051 0.66288686 1.9032998
1.572186 0.63241559 1.9027392
1.5797079 0.60189182 1.9031365
1.5848905 0.57835817 1.9069147
1.5598869 0.71009481 1.8632181
1.5631307 0.69077933 1.8719941
1.5700094 0.66227734 1.8731897
1.5773675 0.63252646 1.8734314
1.5840201 0.60482085 1.8747764
1.586792 0.58538944 1.886377
1.5619394 0.71778613 1.8409058
1.567884 0.69207537 1.8434458
1.5756345 0.66142559 1.8427372
1.5826223 0.63256091 1.8438203
1.5861703 0.61328799 1.8508302
1.5611045 0.7446416 1.8080165
1.5656714 0.72255903 1.8132305
1.5731027 0.69261575 1.8133287
1.5807962 0.6621986 1.8126097
1.5855813 0.63937438 1.8176348
1.5605228 0.77122366 1.7740901
1.5639825 0.75170207 1.7819519
1.5709705 0.72255015 1.7834318
1.5784278 0.69260955 1.7833763
1.5847145 0.66607338 1.7851458
1.5874131 0.64606112 1.797972
1.560041 0.7977019 1.7397437
1.5627135 0.77878016 1.7511853
1.5689909 0.75210381 1.7532067
1.5764481 0.72189045 1.753536
1.5837005 0.69247103 1.7539045
1.5870242 0.6728127 1.7627212
1.5618402 0.80503535 1.7193567
1.5667808 0.78238571 1.7232581
1.5742046 0.75268865 1.7230567
1.5816144 0.72262955 1.7234354
1.5864871 0.70010686 1.7275445
1.5613061 0.83187091 1.6848053
1.5647502 0.8122673 1.692863
1.5720351 0.78282195 1.6930902
1.5795764 0.75250071 1.6930996
1.5855285 0.72635126 1.696209
1.5606871 0.8594324 1.6497159
1.5634962 0.83985442 1.6613141
1.569892 0.81240273 1.6637465
1.5774834 0.78219807 1.6633139
1.5845594 0.75330842 1.6639321
1.5877306 0.73377216 1.6734321
1.5627027 0.86572498 1.6295673
1.5677128 0.84263599 1.6336968
1.5751765 0.81284773 1.6333953
1.582636 0.7829659 1.6332489
1.5871177 0.76145756 1.6381365
1.5620807 0.89222264 1.5959852
1.5657134 0.87240088 1.6032944
1.5731226 0.84272718 1.6031333
1.580659 0.81212103 1.6035703
1.5865064 0.78662485 1.6063522
1.5615669 0.91976362 1.5603304
1.564368 0.90045106 1.5715973
1.5709341 0.87255692 1.5736991
1.5784459 0.84253001 1.5734601
1.5853548 0.81408548 1.5744002
1.5884261 0.79446292 1.5845816
1.5635169 0.92642677 1.5400326
1.5687114 0.90285832 1.543792
1.5762446 0.87290394 1.5433357
1.5836912 0.84285283 1.5434957
1.5877525 0.82188135 1.5499986
1.5629375 0.95296144 1.5061617
1.5666363 0.93277025 1.5136073
1.5740967 0.90295792 1.5133595
1.5815861 0.87259007 1.5137262
1.5872796 0.8478049 1.5163808
1.5623699 0.97988284 1.4716755
1.5651914 0.96101773 1.4822079
1.571902 0.93297184 1.4837019
1.5794356 0.90285134 1.4834731
1.5861511 0.87485778 1.4848707
1.5892256 0.85546899 1.4947058
1.5642185 0.98741448 1.4507374
1.569692 0.96311975 1.4539444
1.5773156 0.9328838 1.453373
1.5847142 0.90278697 1.4538639
1.5887021 0.88203609 1.4604702
1.5636209 1.0140649 1.4168001
1.567561 0.9931047 1.4239678
1.5751425 0.96297348 1.4234837
1.5825642 0.9329021 1.4238133
1.5880333 0.90911067 1.4263409
1.5630867 1.0410645 1.3820181
1.5660191 1.0215819 1.3927839
1.5729437 0.99318051 1.39358
1.580493 0.96292067 1.3934562
1.5870399 0.93513119 1.3955126
1.5898955 0.91639221 1.405674
1.5650141 1.0481839 1.3612072
1.5707284 1.0232356 1.3639768
1.578388 0.99288195 1.3633668
1.5856155 0.96328855 1.3641218
1.5894387 0.94288647 1.3711647
1.5642512 1.0746939 1.3284035
1.5685912 1.0532975 1.3339291
1.5761712 1.0230436 1.3336282
1.5836214 0.9930883 1.3336356
1.5887805 0.96961164 1.3374653
1.5635862 1.1021056 1.293781
1.5669438 1.082139 1.3028381
1.5739893 1.0531307 1.3037958
1.5814906 1.0230985 1.3036234
1.5878919 0.99564421 1.3060293
1.5907724 0.97638834 1.3167756
1.5650113 1.104636 1.2822223
1.5708549 1.0823052 1.2805986
1.5786511 1.0526168 1.278288
1.586293 1.0231742 1.2765026
1.5901972 1.0037962 1.2816539
1.6395638 1.7881191 2.8851397
1.6351736 1.7705503 2.8850925
1.627569 1.7413749 2.8831527
1.6205297 1.7144508 2.8812346
1.5888594 -0.13079399 2.877054
1.5939589 -0.15234077 2.8785212
1.6009065 -0.18154752 2.8803091
1.606284 -0.2046712 2.8824155
1.6378245 1.7961435 2.8629386
1.6314738 1.7692152 2.8651118
1.6240706 1.7395927 2.8650312
1.6166148 1.7098039 2.8648782
1.6110901 1.6861688 2.8670807
1.5830382 -0.094091117 2.8584371
1.5889746 -0.12012023 2.8614683
1.5964222 -0.1500572 2.8614655
1.6037402 -0.17971784 2.8618054
1.60735 -0.19982278 2.8696337
1.639111 1.822513 2.8315294
1.6340063 1.7996019 2.8351567
1.6265223 1.7697717 2.8348968
1.6190082 1.7394979 2.8351233
1.6123394 1.7117783 2.8365793
1.6093941 1.6926593 2.8474057
1.5822418 -0.068047941 2.826468
1.5867919 -0.089996874 2.8315949
1.594301 -0.12021667 2.8316407
1.6018212 -0.1503011 2.8314309
1.6067698 -0.17294407 2.8352804
1.6401705 1.8497704 2.7974622
1.6362298 1.8291155 2.8046539
1.6289687 1.7996343 2.8052046
1.6215227 1.7699319 2.804985
1.6142559 1.740496 2.8054416
1.6104335 1.7199776 2.8131287
1.5817246 -0.041527808 2.7922652
1.5850743 -0.061052442 2.8007467
1.5921258 -0.090032578 2.8016312
1.5996025 -0.12003696 2.8015587
1.6059331 -0.14696175 2.8036258
1.6409955 1.8761511 2.7633023
1.6380334 1.8573716 2.7735245
1.6313257 1.8295362 2.7749245
1.6239007 1.7996668 2.7750814
1.6165088 1.769902 2.7752762
1.6113788 1.7469589 2.7787943
1.5810951 -0.014706194 2.7582693
1.5838705 -0.033555865 2.7690372
1.5899152 -0.05977881 2.7717245
1.5974597 -0.089990437 2.7715626
1.6046424 -0.11935765 2.7722557
1.6079209 -0.13873029 2.7809234
1.6393836 1.8842031 2.7418139
1.6338305 1.8596421 2.7452188
1.6263441 1.8297591 2.7450287
1.6188912 1.7998564 2.7450643
1.61262 1.7731162 2.7474329
1.6098125 1.7537578 2.7594314
1.5830331 -0.0071142316 2.7367411
1.5876921 -0.029524267 2.7418938
1.5952538 -0.059823096 2.7417569
1.6028072 -0.08993417 2.7413981
1.6074053 -0.11207724 2.7465203
1.6404363 1.9106694 2.708878
1.6361582 1.8893892 2.7149935
1.6288489 1.8598522 2.7153387
1.6213721 1.8300302 2.7151167
1.6142306 1.8008652 2.715909
1.6108527 1.7814797 2.7245631
1.5824472 0.019328773 2.7030311
1.5858961 -0.00040012598 2.7112389
1.5930808 -0.029711127 2.7118368
1.6005999 -0.059794605 2.7116389
1.6067332 -0.086109102 2.7139592
1.6414573 1.9375428 2.6751494
1.6382071 1.9184755 2.6840887
1.6312435 1.8898194 2.6851852
1.6237674 1.8597547 2.6853251
1.6163299 1.8299844 2.6852574
1.6117381 1.8080584 2.6904685
1.5819167 0.045916796 2.6688046
1.5845665 0.027375489 2.6798451
1.5909531 0.00034075975 2.6817501
1.5984561 -0.029860497 2.6818056
1.6056327 -0.059100449 2.682353
1.6088465 -0.079146683 2.6923268
1.6394759 1.9440116 2.6538141
1.6336581 1.919675 2.6553149
1.6262059 1.889879 2.6552031
1.6187878 1.860189 2.6551275
1.6129429 1.8346659 2.6582246
1.5836922 0.053510129 2.648186
1.5888159 0.030384839 2.6517251
1.5963402 0.00018548965 2.6516619
1.6038368 -0.03005141 2.6518021
1.6083136 -0.051757038 2.6569927
1.6346512 1.9433066 2.6262214
1.6286672 1.9199747 2.6252475
1.6212319 1.8901249 2.6253104
1.6143575 1.8617976 2.6264486
1.6112294 1.8426728 2.6361992
1.5832683 0.080046326 2.6134365
1.5868068 0.060039729 2.6215281
1.5942631 0.030091017 2.6214943
1.6016995 -3.2365322e-05 2.6218133
1.6074743 -0.025488853 2.6249499
1.6291006 1.9408464 2.5969186
1.6236022 1.9199431 2.5952303
1.6162601 1.8902903 2.5955584
1.6120926 1.8693699 2.6017962
1.582698 0.10713056 2.5787401
1.5854117 0.087972373 2.5902848
1.5920874 0.060259908 2.5915132
1.5994692 0.030332655 2.5918632
1.606335 0.0018830895 2.5930524
1.6094654 -0.017136574 2.6020613
1.6236491 1.9380672 2.5686791
1.6186498 1.9204032 2.5651572
1.6132343 1.8962066 2.568841
1.5845246 0.11415246 2.5586333
1.5899007 0.090418279 2.5616086
1.5972954 0.060424596 2.5619822
1.604728 0.030493617 2.5620546
1.6089988 0.009565711 2.5673151
1.6194024 1.9358039 2.5468245
1.6144645 1.9221981 2.5376606
1.61155 1.9039588 2.5473666
1.583901 0.14069739 2.5249927
1.5877892 0.12041888 2.5315006
1.5951228 0.090509623 2.5321002
1.6026224 0.060483962 2.5319288
1.6083537 0.035540611 2.5345917
1.6122026 1.9273593 2.5165944
1.5834153 0.1681461 2.4893124
1.5863094 0.14862075 2.5003572
1.5929497 0.12062916 2.5021741
1.6004989 0.090527028 2.5018313
1.6073481 0.062104762 2.5030732
1.6103219 0.042915344 2.5131986
1.5854504 0.17469716 2.4686942
1.5907793 0.1506663 2.4723446
1.5983311 0.12063655 2.4718847
1.6057991 0.09058696 2.4719238
1.6097133 0.069967806 2.4787631
1.5848193 0.20090672 2.4355643
1.5886971 0.18063053 2.4421256
1.5961422 0.15076011 2.4420457
1.6036974 0.1204766 2.4419188
1.6090852 0.096377283 2.4453363
1.5840603 0.22923106 2.4001935
1.5870891 0.20963958 2.410573
1.5939277 0.18096963 2.4122229
1.6015306 0.15058267 2.4119756
1.6081605 0.12268826 2.4137142
1.61104 0.10315931 2.4248464
1.5861883 0.23585859 2.3789458
1.5917907 0.21090409 2.3823566
1.599373 0.18059301 2.3821142
1.6067761 0.15075698 2.3822215
1.6104131 0.13032332 2.390357
1.585497 0.26230091 2.3458323
1.5896741 0.24074653 2.3524969
1.5971901 0.21086064 2.352037
1.604768 0.18050644 2.3518853
1.6098413 0.15699583 2.3562448
1.5849588 0.28844866 2.3122633
1.5881048 0.26923311 2.3214569
1.5949911 0.24111447 2.3220642
1.6025923 0.21061447 2.3219888
1.608976 0.18337065 2.3242025
1.6119235 0.16435894 2.3342261
1.586895 0.29676518 2.2897296
1.5926784 0.27169347 2.2922838
1.6004426 0.24061131 2.2921026
1.6076014 0.21137753 2.292738
1.6113397 0.1914438 2.2996035
1.5861706 0.32347828 2.2564237
1.590515 0.30163887 2.2625451
1.5983161 0.27056503 2.2621431
1.605608 0.24102494 2.2624607
1.6107272 0.21818039 2.2656326
1.5856662 0.34945804 2.2228999
1.5889795 0.32989532 2.231638
1.596163 0.30061552 2.2322025
1.6035049 0.27091682 2.2324607
1.6098738 0.24401972 2.2342701
1.6124331 0.22507337 2.2463884
1.5878448 0.35717386 2.1998448
1.5939749 0.33056098 2.2026014
1.6014192 0.30086973 2.2022736
1.6084888 0.27189517 2.203052
1.6118776 0.25203615 2.2117779
1.5868068 0.38416392 2.1679137
1.5915573 0.36188298 2.172369
1.5990727 0.33170643 2.1723199
1.6066281 0.30123001 2.1724658
1.6113504 0.2785646 2.1776183
1.5863298 0.41050917 2.1337245
1.5896779 0.39101976 2.142163
1.5969366 0.36149839 2.1426406
1.6044862 0.3314265 2.1422565
1.6105567 0.30524495 2.1447439
1.5858985 0.4370555 2.098999
1.5885626 0.41831642 2.1102359
1.5948436 0.39138669 2.1125917
1.6023239 0.36151338 2.1123149
1.6095825 0.33203632 2.1127286
1.6127858 0.31235874 2.1222475
1.5877818 0.44403297 2.0786417
1.5929028 0.42091364 2.0821848
1.6003524 0.39097804 2.08217
1.607877 0.36073798 2.0821548
1.6122248 0.33907491 2.0880127
1.5870525 0.47139883 2.0444419
1.590726 0.45088136 2.0524919
1.598193 0.42062271 2.0528305
1.6056952 0.39058179 2.0526662
1.6115266 0.36524963 2.0553071
1.5865996 0.49849948 2.0090637
1.5892966 0.47939309 2.0206313
1.595778 0.45174184 2.0228601
1.6034847 0.42060933 2.0230768
1.6104559 0.39176142 2.024231
1.6135039 0.37254333 2.0339777
1.5884781 0.50523174 1.9890759
1.5937293 0.48189086 1.9921929
1.6011884 0.4521136 1.9919074
1.6083502 0.42243728 1.9931439
1.6128861 0.40047666 1.9983609
1.5878508 0.53161097 1.9556823
1.591691 0.51101613 1.9629023
1.5990232 0.48181057 1.9625233
1.6065313 0.45207611 1.9619006
1.6122651 0.4266555 1.9652174
1.5873016 0.55901372 1.9204236
1.5903559 0.53922635 1.9309336
1.5968693 0.51126719 1.9334173
1.6043538 0.48172972 1.9326481
1.6112167 0.45366877 1.9333105
1.614262 0.43447983 1.9430331
1.589175 0.56626403 1.899738
1.5948439 0.54176039 1.9021405
1.6021801 0.51136857 1.9033966
1.6096517 0.48181388 1.9027236
1.6136508 0.46130961 1.9089221
1.5885769 0.59289145 1.8658347
1.5924846 0.57198852 1.873105
1.600108 0.54196781 1.8722299
1.6075702 0.51122886 1.8732673
1.6130464 0.48745275 1.8757337
1.5882801 0.6191808 1.8307135
1.5911022 0.60034078 1.8412035
1.5978614 0.57192904 1.8429391
1.6053977 0.54179645 1.842711
1.6120707 0.51350254 1.8447683
1.6149801 0.49475047 1.8546422
1.5901259 0.6261465 1.8105828
1.5958173 0.60178781 1.8126516
1.6033062 0.57148653 1.8129277
1.6107931 0.54130137 1.8130509
1.6144226 0.52116799 1.8208085
1.5893196 0.65380442 1.7764069
1.5935631 0.63188165 1.7832201
1.6010561 0.60199505 1.7828879
1.6085964 0.57186657 1.782632
1.6139667 0.54738241 1.7866833
1.5888675 0.67970723 1.742702
1.5918995 0.66112256 1.7516522
1.5988231 0.63231665 1.7530172
1.6064115 0.60186541 1.7529418
1.6128802 0.57474792 1.7544999
1.6157404 0.55486727 1.7662301
1.5908364 0.68749797 1.7207214
1.5968674 0.66160226 1.7230327
1.6042817 0.63199407 1.7227564
1.6115503 0.60228324 1.7234439
1.6153367 0.58139974 1.731369
1.5902134 0.71410912 1.686981
1.5944817 0.69234866 1.6934257
1.6021086 0.66193271 1.6930832
1.609566 0.63202488 1.6929859
1.6145265 0.60967994 1.6963484
1.5895637 0.7404623 1.6537565
1.5928749 0.72108746 1.6622454
1.6000129 0.69206089 1.6627116
1.6073308 0.66224134 1.663272
1.613741 0.63521427 1.6650336
1.6163737 0.61670327 1.6761278
1.5890577 0.76747543 1.6187983
1.5915252 0.74880636 1.6310453
1.5976754 0.72257483 1.6331552
1.6053344 0.69190389 1.6329885
1.6125188 0.6626488 1.633512
1.615816 0.64345706 1.6418216
1.5908645 0.7745226 1.5987657
1.5957516 0.75170809 1.6032026
1.6031939 0.72199655 1.6029184
1.6105232 0.69231045 1.603227
1.6154151 0.66961128 1.6074769
1.5902163 0.80187684 1.5641336
1.5936319 0.78213346 1.5725495
1.6008567 0.7526049 1.5732299
1.6085222 0.72188711 1.5730928
1.6146845 0.6954847 1.5753758
1.5898803 0.82820743 1.5291746
1.5925153 0.80896318 1.5412827
1.5988852 0.78194523 1.543258
1.6062881 0.75222629 1.5432022
1.6133016 0.72339952 1.5440884
1.6167136 0.70333529 1.5529723
1.591558 0.83550596 1.5095205
1.5965316 0.81277907 1.5133476
1.6040629 0.78257149 1.5132501
1.6117146 0.75194973 1.5130583
1.6162407 0.72983766 1.5185428
1.591078 0.8622061 1.4748569
1.5947298 0.84183377 1.4828234
1.6019899 0.81226015 1.483367
1.609468 0.78230834 1.4832126
1.6153418 0.75693953 1.4856718
1.5905018 0.88890553 1.4407308
1.5932931 0.86995536 1.4515495
1.5997648 0.84264791 1.4533553
1.6072683 0.81258339 1.4532146
1.6143023 0.78353024 1.4543047
1.6174434 0.76406527 1.4638743
1.5924096 0.89616942 1.4198303
1.5976321 0.87273312 1.4232488
1.6051514 0.84237278 1.4234354
1.6126668 0.81234026 1.4231859
1.6167746 0.79109079 1.4298162
1.5917476 0.92287165 1.3861852
1.5956043 0.90229791 1.3932822
1.6029146 0.87276459 1.3934882
1.6104376 0.84271622 1.3932142
1.6161931 0.81754214 1.3960657
1.5912031 0.95037436 1.350759
1.594131 0.93083829 1.3616266
1.6008184 0.90271544 1.3633626
1.6083043 0.87240356 1.3636699
1.615131 0.84431064 1.3645785
1.6179516 0.82551098 1.3750216
1.5932041 0.95670176 1.3306446
1.5986729 0.93265569 1.3335328
1.6060998 0.9028933 1.3334017
1.613471 0.87312061 1.3335979
1.6176785 0.85179532 1.3397715
1.5924314 0.9839797 1.2968152
1.5965143 0.96297419 1.3032463
1.6040059 0.93266648 1.3035119
1.6115221 0.90231621 1.3037035
1.6170791 0.87803841 1.3064167
1.5919639 1.0090312 1.2643877
1.5950524 0.99064374 1.2727451
1.6018127 0.96291274 1.2735214
1.6093066 0.93303418 1.2731776
1.6159379 0.90493232 1.2751989
1.6189797 0.88554633 1.2852166
1.5999304 0.98146355 1.2581501
1.6057122 0.95969582 1.2560861
1.6133112 0.93079793 1.2537762
1.6181468 0.91172624 1.253264
1.6715161 1.9064544 2.8835816
1.6659091 1.8865603 2.891654
1.6583651 1.8594766 2.8910868
1.6505804 1.8297042 2.8889587
1.6436968 1.8030249 2.887603
1.6098875 -0.21888453 2.882035
1.6151428 -0.24119711 2.8836946
1.6222209 -0.27119935 2.8858624
1.6294394 -0.3013131 2.8873971
1.6344815 -0.32461196 2.8916361
1.6681504 1.9134833 2.8614473
1.6612519 1.8886113 2.8649137
1.6539093 1.8590769 2.8652301
1.64642 1.8291824 2.8650384
1.6423105 1.8084002 2.8714151
1.6092716 -0.19308925 2.8493991
1.6121838 -0.21230894 2.8599117
1.6189728 -0.24049485 2.8611665
1.6264677 -0.27056485 2.8610826
1.6331602 -0.29851305 2.8625469
1.6360358 -0.31737077 2.8727586
1.670334 1.9404018 2.8300033
1.6636498 1.9180576 2.8344529
1.6563451 1.8890928 2.835247
1.6488512 1.8591232 2.8351374
1.6433998 1.8351532 2.8382716
1.6111568 -0.1855225 2.8282049
1.6167784 -0.21045375 2.8314681
1.6243352 -0.24060673 2.8311543
1.6317215 -0.27047253 2.8313978
1.635581 -0.29091591 2.8382924
1.6716906 1.9679399 2.7942536
1.6660215 1.94684 2.8034117
1.6588104 1.9191846 2.8053291
1.6513019 1.8892726 2.805047
1.6447358 1.8616365 2.8069911
1.6418302 1.8433168 2.8168683
1.6104246 -0.15921813 2.7955098
1.6146861 -0.18039751 2.8011744
1.6221155 -0.2104516 2.8014379
1.6296951 -0.24063039 2.8010309
1.6349114 -0.26425898 2.8047523
1.6675123 1.9714928 2.7739282
1.6611202 1.9489039 2.7749968
1.6538112 1.9192981 2.7754865
1.6464499 1.8899094 2.7753088
1.6427655 1.8696396 2.7834487
1.6098069 -0.13238108 2.7614264
1.6130114 -0.15163052 2.7703381
1.6200092 -0.18040997 2.771245
1.6274914 -0.21050644 2.7712693
1.6339992 -0.2379148 2.7730162
1.6365972 -0.25609821 2.7838485
1.6613669 1.9692225 2.7464185
1.6562109 1.9492736 2.7453485
1.6487589 1.9193515 2.7454209
1.6436267 1.8963453 2.7490196
1.6119257 -0.12468076 2.7387249
1.6178293 -0.15030533 2.7413766
1.6253587 -0.18052059 2.741303
1.6326474 -0.21014512 2.7417574
1.6363627 -0.23076731 2.7497158
1.6560634 1.9667406 2.7186146
1.6511872 1.9494488 2.7152741
1.644912 1.922645 2.7177136
1.6420032 1.9030961 2.7293906
1.6112169 -0.098352373 2.705868
1.6156726 -0.12021941 2.7114072
1.6231711 -0.15033078 2.7113614
1.6307143 -0.18044645 2.7110713
1.6356559 -0.20348024 2.7155056
1.6463964 1.9496571 2.6865284
1.643068 1.9302762 2.6954694
1.6107397 -0.071380496 2.6708059
1.6138771 -0.090934634 2.6805191
1.6209992 -0.1201238 2.6813021
1.6284888 -0.15032351 2.6814318
1.6348481 -0.17716354 2.6832175
1.6376334 -0.19562727 2.6933885
1.6435788 1.9536108 2.6639533
1.612674 -0.063670218 2.6491342
1.6188523 -0.090151608 2.6514363
1.626376 -0.12026769 2.6512556
1.633574 -0.14974278 2.6520131
1.6370673 -0.17025483 2.6610644
1.6119707 -0.037617922 2.616631
1.6167105 -0.060224652 2.6216021
1.6241961 -0.090272546 2.621542
1.6317198 -0.12029839 2.6212342
1.6364303 -0.1425817 2.6259186
1.6114286 -0.010798156 2.5821452
