x,y,z,nx,ny,nz
1.68959,1.40926,2.23093,0.070761,-4.39425,-0.623033
1.6835,1.40124,2.27022,-0.027617,-4.38057,-0.636331
1.67689,1.39304,2.30949,-0.135024,-4.36476,-0.650366
1.66978,1.38466,2.34872,-0.251459,-4.34679,-0.665138
1.66215,1.37612,2.38793,-0.376924,-4.32668,-0.680646
1.65402,1.3674,2.42712,-0.511417,-4.30443,-0.696891
1.64556,1.3586,2.46626,-0.647189,-4.28193,-0.712806
1.63696,1.34981,2.50535,-0.77649,-4.26109,-0.727323
1.62823,1.34105,2.5444,-0.899322,-4.24191,-0.740443
1.61936,1.3323,2.58339,-1.01568,-4.22439,-0.752166
1.61035,1.32356,2.62233,-1.12557,-4.20852,-0.762491
1.6012,1.31485,2.66122,-1.22899,-4.19432,-0.771418
1.59192,1.30615,2.70006,-1.32594,-4.18178,-0.778949
1.5825,1.29746,2.73885,-1.41642,-4.1709,-0.785082
1.57294,1.28879,2.77759,-1.50043,-4.16167,-0.789817
1.56324,1.28014,2.81627,-1.57797,-4.15411,-0.793155
1.55341,1.27151,2.85491,-1.64903,-4.1482,-0.795096
1.54343,1.26289,2.8935,-1.71363,-4.14396,-0.795639
1.53332,1.25429,2.93204,-1.77176,-4.14137,-0.794785
1.52308,1.24571,2.97052,-1.82341,-4.14044,-0.792533
1.51269,1.23714,3.00896,-1.8686,-4.14118,-0.788885
1.50217,1.22859,3.04734,-1.90731,-4.14357,-0.783838
1.4915,1.22006,3.08568,-1.93956,-4.14762,-0.777394
1.48071,1.21154,3.12396,-1.96533,-4.15333,-0.769553
1.46977,1.20304,3.16219,-1.98463,-4.1607,-0.760315
1.45869,1.19456,3.20037,-1.99747,-4.16973,-0.749679
1.44748,1.18609,3.23851,-2.00383,-4.18042,-0.737645
1.43613,1.17764,3.27659,-2.00372,-4.19277,-0.724215
1.42464,1.16921,3.31462,-1.99714,-4.20678,-0.709386
1.41302,1.16079,3.3526,-1.98409,-4.22244,-0.693161
1.40126,1.15239,3.39053,-1.96457,-4.23977,-0.675538
1.38985,1.14432,3.42839,-1.94073,-4.25816,-0.657371
1.37929,1.13689,3.46617,-1.91471,-4.27699,-0.639516
1.36958,1.13011,3.50387,-1.88652,-4.29629,-0.62197
1.36072,1.12398,3.54149,-1.85616,-4.31603,-0.604736
1.35271,1.11849,3.57903,-1.82362,-4.33623,-0.587811
1.34554,1.11364,3.61648,-1.78891,-4.35689,-0.571198
1.33923,1.10944,3.65386,-1.75202,-4.378,-0.554895
1.33376,1.10588,3.69115,-1.71296,-4.39956,-0.538902
1.32914,1.10297,3.72836,-1.67173,-4.42158,-0.52322
1.32538,1.1007,3.76549,-1.62832,-4.44405,-0.507849
1.32246,1.09908,3.80254,-1.58274,-4.46698,-0.492788
1.32039,1.0981,3.8395,-1.53498,-4.49036,-0.478038
1.31916,1.09777,3.87639,-1.48505,-4.51419,-0.463598
1.31879,1.09808,3.91319,-1.43294,-4.53848,-0.449469
1.31927,1.09904,3.94992,-1.37866,-4.56323,-0.43565
1.32059,1.10064,3.98656,-1.32221,-4.58842,-0.422142
1.32276,1.10288,4.02311,-1.26358,-4.61408,-0.408944
1.32578,1.10578,4.05959,-1.20278,-4.64018,-0.396057
1.32966,1.10931,4.09599,-1.13981,-4.66674,-0.383481
1.33438,1.11349,4.1323,-1.07466,-4.69376,-0.371215
1.33994,1.11832,4.16854,-1.00733,-4.72123,-0.35926
1.34636,1.12379,4.20469,-0.937834,-4.74915,-0.347615
1.35363,1.1299,4.24076,-0.866162,-4.77753,-0.336281
1.36174,1.13666,4.27674,-0.792316,-4.80636,-0.325257
1.68125,1.60238,0.407586,-0.970113,-4.46546,-0.499635
1.67819,1.5982,0.4498,-0.963235,-4.41883,-0.504255
1.67547,1.594,0.491918,-0.953359,-4.3753,-0.508604
1.67308,1.58977,0.533941,-0.940486,-4.33487,-0.512682
1.67103,1.58552,0.575867,-0.924615,-4.29754,-0.516489
1.66932,1.58125,0.617698,-0.905746,-4.26331,-0.520025
1.66794,1.57695,0.659432,-0.88388,-4.23218,-0.523291
1.6669,1.57263,0.701071,-0.859017,-4.20415,-0.526285
1.6662,1.56829,0.742614,-0.831155,-4.17922,-0.529009
1.66583,1.56393,0.784062,-0.800297,-4.15739,-0.531462
1.6658,1.55954,0.825413,-0.76644,-4.13866,-0.533644
1.6661,1.55513,0.866669,-0.729586,-4.12303,-0.535555
1.66674,1.55069,0.907829,-0.689735,-4.1105,-0.537195
1.66772,1.54623,0.948893,-0.646886,-4.10107,-0.538565
1.66904,1.54175,0.989861,-0.601039,-4.09474,-0.539663
1.67069,1.53724,1.03073,-0.552195,-4.09151,-0.540491
1.67268,1.53272,1.07151,-0.500353,-4.09137,-0.541048
1.675,1.52816,1.11219,-0.445514,-4.09434,-0.541333
1.67766,1.52359,1.15278,-0.387677,-4.10041,-0.541349
1.68066,1.51899,1.19327,-0.326842,-4.10958,-0.541093
1.684,1.51437,1.23366,-0.26301,-4.12185,-0.540566
1.68767,1.50972,1.27396,-0.19618,-4.13722,-0.539769
1.69168,1.50506,1.31416,-0.126353,-4.15569,-0.5387
1.69602,1.50036,1.35426,-0.0535283,-4.17726,-0.537361
1.7007,1.49565,1.39427,0.0222941,-4.20193,-0.535751
1.70572,1.49091,1.43419,0.101114,-4.2297,-0.53387
1.7106,1.48609,1.47404,0.177211,-4.25796,-0.532214
1.71489,1.48111,1.51385,0.244863,-4.2841,-0.531278
1.71859,1.47597,1.55363,0.304071,-4.30812,-0.531062
1.72168,1.47069,1.59338,0.354835,-4.33003,-0.531567
1.72418,1.46525,1.63309,0.397154,-4.34982,-0.532792
1.72608,1.45966,1.67277,0.431029,-4.36749,-0.534737
1.72739,1.45392,1.71241,0.45646,-4.38304,-0.537403
1.7281,1.44802,1.75202,0.473447,-4.39647,-0.540789
1.72821,1.44197,1.79159,0.481989,-4.40779,-0.544895
1.72772,1.43577,1.83113,0.482087,-4.41699,-0.549722
1.72664,1.42941,1.87063,0.47374,-4.42407,-0.555269
1.72496,1.4229,1.91011,0.45695,-4.42903,-0.561536
1.72269,1.41624,1.94954,0.431715,-4.43187,-0.568524
1.71981,1.40943,1.98894,0.398035,-4.4326,-0.576231
1.71634,1.40246,2.02831,0.355912,-4.43121,-0.58466
1.71228,1.39534,2.06764,0.305344,-4.4277,-0.593808
1.70761,1.38806,2.10694,0.246331,-4.42207,-0.603677
1.70235,1.38064,2.14621,0.178875,-4.41432,-0.614266
1.69649,1.37306,2.18543,0.102974,-4.40446,-0.625575
1.69004,1.36533,2.22463,0.018629,-4.39248,-0.637605
1.68299,1.35744,2.26379,-0.0741604,-4.37838,-0.650355
1.67534,1.3494,2.30292,-0.175394,-4.36216,-0.663825
1.66709,1.34121,2.34201,-0.285072,-4.34382,-0.678016
1.65825,1.33287,2.38107,-0.403194,-4.32337,-0.692927
1.64881,1.32437,2.42009,-0.529761,-4.3008,-0.708558
1.63904,1.3158,2.45908,-0.657449,-4.27797,-0.723867
1.62919,1.30722,2.49803,-0.778936,-4.25674,-0.737811
1.61926,1.29865,2.53694,-0.894221,-4.23711,-0.75039
1.60926,1.29008,2.57582,-1.0033,-4.21908,-0.761605
1.59919,1.28151,2.61466,-1.10619,-4.20265,-0.771454
1.58905,1.27293,2.65346,-1.20287,-4.18781,-0.779938
1.57882,1.26436,2.69223,-1.29335,-4.17458,-0.787058
1.56853,1.25579,2.73096,-1.37762,-4.16295,-0.792812
1.55816,1.24722,2.76965,-1.4557,-4.15292,-0.797202
1.54771,1.23865,2.80831,-1.52757,-4.14449,-0.800226
1.5372,1.23008,2.84693,-1.59325,-4.13766,-0.801886
1.5266,1.22151,2.88551,-1.65272,-4.13244,-0.802181
1.51594,1.21294,2.92406,-1.70599,-4.12881,-0.801111
1.50519,1.20437,2.96257,-1.75305,-4.12678,-0.798676
1.49438,1.1958,3.00104,-1.79392,-4.12635,-0.794876
1.48349,1.18724,3.03947,-1.82859,-4.12752,-0.789711
1.47252,1.17867,3.07787,-1.85705,-4.13029,-0.783181
1.46148,1.1701,3.11623,-1.87931,-4.13466,-0.775286
1.45037,1.16153,3.15456,-1.89537,-4.14063,-0.766026
1.43918,1.15297,3.19285,-1.90523,-4.1482,-0.755402
1.42792,1.1444,3.2311,-1.90889,-4.15737,-0.743412
1.41658,1.13583,3.26932,-1.90635,-4.16814,-0.730058
1.40517,1.12727,3.30749,-1.8976,-4.18052,-0.715338
1.39369,1.1187,3.34563,-1.88265,-4.19449,-0.699254
1.38213,1.11014,3.38374,-1.8615,-4.21006,-0.681805
1.37096,1.10189,3.42178,-1.83633,-4.22676,-0.663816
1.36067,1.09429,3.45974,-1.80931,-4.24411,-0.646112
1.35125,1.08732,3.49762,-1.78043,-4.26212,-0.628694
1.34269,1.08099,3.53541,-1.7497,-4.28079,-0.611562
1.335,1.0753,3.57311,-1.71713,-4.30011,-0.594715
1.32818,1.07025,3.61074,-1.6827,-4.32009,-0.578154
1.32224,1.06584,3.64827,-1.64642,-4.34072,-0.561878
1.31716,1.06207,3.68573,-1.6083,-4.36201,-0.545887
1.31294,1.05894,3.72309,-1.56832,-4.38395,-0.530182
1.3096,1.05645,3.76038,-1.52649,-4.40655,-0.514763
1.30713,1.0546,3.79758,-1.48281,-4.42981,-0.499629
1.30552,1.05338,3.83469,-1.43728,-4.45372,-0.48478
1.30479,1.05281,3.87172,-1.3899,-4.47829,-0.470217
1.30492,1.05287,3.90867,-1.34067,-4.50351,-0.45594
1.30592,1.05357,3.94553,-1.28959,-4.52939,-0.441948
1.3078,1.05492,3.9823,-1.23666,-4.55592,-0.428242
1.31054,1.0569,4.019,-1.18187,-4.58311,-0.414821
1.31414,1.05952,4.0556,-1.12524,-4.61095,-0.401685
1.31862,1.06278,4.09213,-1.06676,-4.63945,-0.388835
1.32397,1.06668,4.12856,-1.00642,-4.66861,-0.376271
1.33019,1.07122,4.16492,-0.94424,-4.69842,-0.363992
1.33727,1.0764,4.20119,-0.880205,-4.72889,-0.351998
1.34522,1.08221,4.23737,-0.81432,-4.76001,-0.34029
1.35405,1.08867,4.27347,-0.746585,-4.79179,-0.328868
1.67156,1.55795,0.402682,-0.969093,-4.41995,-0.48121
1.66858,1.55421,0.444833,-0.959385,-4.37884,-0.489209
1.66597,1.55042,0.486891,-0.947056,-4.34056,-0.49679
1.66372,1.54657,0.528857,-0.932106,-4.30512,-0.503954
1.66184,1.54267,0.570731,-0.914534,-4.27251,-0.510701
1.66032,1.53872,0.612512,-0.894342,-4.24273,-0.51703
1.65916,1.53471,0.654201,-0.871528,-4.21579,-0.522942
1.65837,1.53065,0.695798,-0.846094,-4.19168,-0.528436
1.65795,1.52654,0.737302,-0.818038,-4.1704,-0.533513
1.65789,1.52238,0.778714,-0.787361,-4.15196,-0.538173
1.65819,1.51816,0.820033,-0.754062,-4.13636,-0.542415
1.65886,1.51389,0.86126,-0.718143,-4.12358,-0.546239
1.6599,1.50957,0.902395,-0.679603,-4.11365,-0.549647
1.6613,1.50519,0.943437,-0.638441,-4.10654,-0.552636
1.66306,1.50076,0.984387,-0.594658,-4.10227,-0.555209
1.66519,1.49628,1.02524,-0.548254,-4.10083,-0.557364
1.66768,1.49175,1.06601,-0.499229,-4.10223,-0.559101
1.67054,1.48716,1.10668,-0.447583,-4.10646,-0.560422
1.67376,1.48252,1.14726,-0.393316,-4.11353,-0.561324
1.67735,1.47783,1.18775,-0.336427,-4.12343,-0.56181
1.6813,1.47308,1.22815,-0.276918,-4.13616,-0.561878
1.68561,1.46828,1.26845,-0.214787,-4.15173,-0.561528
1.69029,1.46343,1.30866,-0.150035,-4.17013,-0.560761
1.69534,1.45852,1.34878,-0.0826621,-4.19136,-0.559577
1.70075,1.45356,1.3888,-0.0126679,-4.21543,-0.557975
1.70652,1.44855,1.42874,0.0599474,-4.24233,-0.555956
1.71214,1.44345,1.46861,0.129943,-4.26961,-0.55408
1.71708,1.43821,1.50843,0.192079,-4.29479,-0.552908
1.72134,1.43284,1.54821,0.246356,-4.31789,-0.55244
1.72492,1.42734,1.58796,0.292772,-4.33889,-0.552676
1.72782,1.42171,1.62766,0.331329,-4.3578,-0.553615
1.73005,1.41595,1.66732,0.362026,-4.37463,-0.555259
1.7316,1.41005,1.70693,0.384863,-4.38936,-0.557606
1.73246,1.40403,1.74651,0.39984,-4.40201,-0.560657
1.73265,1.39787,1.78604,0.406957,-4.41256,-0.564413
1.73217,1.39158,1.82554,0.406214,-4.42102,-0.568872
1.731,1.38515,1.86499,0.397612,-4.4274,-0.574035
1.72915,1.3786,1.9044,0.38115,-4.43168,-0.579902
1.72663,1.37191,1.94377,0.356827,-4.43387,-0.586472
1.72343,1.36509,1.98309,0.324645,-4.43398,-0.593747
1.71955,1.35814,2.02238,0.284604,-4.43199,-0.601726
1.71499,1.35106,2.06162,0.236702,-4.42791,-0.610408
1.70975,1.34385,2.10082,0.180941,-4.42175,-0.619794
1.70383,1.3365,2.13998,0.117319,-4.41349,-0.629885
1.69724,1.32902,2.1791,0.045838,-4.40314,-0.640679
1.68996,1.32141,2.21818,-0.033503,-4.39071,-0.652177
1.68201,1.31367,2.25722,-0.120704,-4.37618,-0.664379
1.67338,1.30579,2.29621,-0.215765,-4.35956,-0.677285
1.66407,1.29779,2.33516,-0.318685,-4.34085,-0.690894
1.65409,1.28965,2.37408,-0.429465,-4.32006,-0.705208
1.64342,1.28138,2.41295,-0.548106,-4.29717,-0.720225
1.63241,1.27304,2.45178,-0.66771,-4.27401,-0.734929
1.62138,1.26468,2.4906,-0.781381,-4.25239,-0.748299
1.61035,1.2563,2.52939,-0.88912,-4.2323,-0.760338
1.59929,1.24791,2.56815,-0.990926,-4.21376,-0.771044
1.58823,1.23951,2.6069,-1.0868,-4.19677,-0.780417
1.57715,1.23109,2.64562,-1.17674,-4.18131,-0.788458
1.56605,1.22265,2.68432,-1.26075,-4.16739,-0.795167
1.55495,1.2142,2.72299,-1.33883,-4.15501,-0.800543
1.54383,1.20574,2.76164,-1.41097,-4.14418,-0.804586
1.53269,1.19725,2.80027,-1.47718,-4.13488,-0.807298
1.52154,1.18876,2.83887,-1.53746,-4.12713,-0.808676
1.51038,1.18024,2.87746,-1.5918,-4.12091,-0.808723
1.4992,1.17172,2.91601,-1.64022,-4.11624,-0.807437
1.48801,1.16317,2.95455,-1.6827,-4.11311,-0.804818
1.47681,1.15462,2.99306,-1.71925,-4.11152,-0.800867
1.46559,1.14604,3.03155,-1.74986,-4.11147,-0.795583
1.45436,1.13745,3.07001,-1.77454,-4.11296,-0.788967
1.44312,1.12885,3.10845,-1.79329,-4.11599,-0.781019
1.43186,1.12023,3.14687,-1.80611,-4.12056,-0.771738
1.42059,1.11159,3.18527,-1.813,-4.12667,-0.761125
1.4093,1.10294,3.22364,-1.81395,-4.13432,-0.749179
1.39801,1.09428,3.26199,-1.80897,-4.14352,-0.735901
1.38669,1.0856,3.30031,-1.79806,-4.15425,-0.72129
1.37537,1.0769,3.33861,-1.78121,-4.16653,-0.705347
1.36403,1.06819,3.37689,-1.75844,-4.18034,-0.688072
1.35312,1.05978,3.41511,-1.73193,-4.19536,-0.67026
1.3431,1.05201,3.45325,-1.7039,-4.21123,-0.652709
1.33397,1.04487,3.4913,-1.67433,-4.22796,-0.635419
1.32572,1.03836,3.52926,-1.64325,-4.24555,-0.618389
1.31836,1.03248,3.56713,-1.61063,-4.26399,-0.601619
1.31189,1.02724,3.60492,-1.57649,-4.28329,-0.58511
1.3063,1.02262,3.64262,-1.54082,-4.30345,-0.568861
1.3016,1.01864,3.68023,-1.50363,-4.32446,-0.552872
1.29778,1.01529,3.71776,-1.46491,-4.34633,-0.537144
1.29485,1.01257,3.75519,-1.42466,-4.36906,-0.521677
1.2928,1.01048,3.79255,-1.38288,-4.39264,-0.50647
1.29164,1.00903,3.82981,-1.33958,-4.41708,-0.491523
1.29137,1.0082,3.86699,-1.29475,-4.44238,-0.476837
1.29198,1.00801,3.90407,-1.24839,-4.46854,-0.462411
1.29347,1.00845,3.94108,-1.20051,-4.49555,-0.448246
1.29586,1.00952,3.97799,-1.1511,-4.52342,-0.434341
1.29913,1.01122,4.01482,-1.10016,-4.55214,-0.420697
1.30328,1.01356,4.05156,-1.0477,-4.58173,-0.407313
1.30832,1.01652,4.08821,-0.993709,-4.61217,-0.394189
1.31425,1.02012,4.12478,-0.938191,-4.64346,-0.381326
1.32106,1.02435,4.16126,-0.881147,-4.67562,-0.368724
1.32876,1.02921,4.19765,-0.822576,-4.70863,-0.356382
1.33734,1.0347,4.23395,-0.762478,-4.74249,-0.3443
1.34681,1.04082,4.27017,-0.700853,-4.77722,-0.332479
1.66187,1.51398,0.397962,-0.968073,-4.37445,-0.462784
1.65901,1.51062,0.440016,-0.955535,-4.33885,-0.474162
1.65653,1.50718,0.481983,-0.940753,-4.30583,-0.484977
1.65444,1.50367,0.523861,-0.923726,-4.27537,-0.495227
1.65274,1.50007,0.565653,-0.904454,-4.24748,-0.504913
1.65143,1.49639,0.607357,-0.882938,-4.22215,-0.514035
1.65051,1.49264,0.648974,-0.859177,-4.1994,-0.522593
1.64998,1.4888,0.690503,-0.833171,-4.17921,-0.530587
1.64984,1.48488,0.731944,-0.80492,-4.16159,-0.538017
1.65008,1.48089,0.773298,-0.774425,-4.14654,-0.544883
1.65072,1.47681,0.814565,-0.741685,-4.13406,-0.551186
1.65174,1.47265,0.855744,-0.7067,-4.12414,-0.556924
1.65315,1.46842,0.896836,-0.669471,-4.1168,-0.562098
1.65495,1.4641,0.93784,-0.629996,-4.11202,-0.566708
1.65715,1.4597,0.978757,-0.588278,-4.10981,-0.570755
1.65973,1.45523,1.01959,-0.544314,-4.11016,-0.574237
1.66269,1.45067,1.06033,-0.498106,-4.11309,-0.577155
1.66605,1.44603,1.10098,-0.449653,-4.11858,-0.57951
1.6698,1.44132,1.14155,-0.398955,-4.12664,-0.5813
1.67393,1.43652,1.18203,-0.346013,-4.13727,-0.582527
1.67846,1.43165,1.22242,-0.290826,-4.15047,-0.583189
1.68337,1.42669,1.26273,-0.233394,-4.16623,-0.583288
1.68867,1.42165,1.30294,-0.173717,-4.18456,-0.582822
1.69437,1.41654,1.34307,-0.111796,-4.20546,-0.581793
1.70045,1.41134,1.38311,-0.04763,-4.22893,-0.580199
1.70692,1.40607,1.42307,0.0187806,-4.25497,-0.578042
1.7132,1.40069,1.46296,0.082676,-4.28126,-0.575946
1.71874,1.39521,1.50279,0.139296,-4.30548,-0.574538
1.72351,1.38962,1.54258,0.18864,-4.32765,-0.573817
1.72754,1.38391,1.58232,0.23071,-4.34775,-0.573784
1.73081,1.3781,1.62202,0.265503,-4.36579,-0.574438
1.73333,1.37217,1.66166,0.293022,-4.38177,-0.57578
1.73509,1.36613,1.70126,0.313265,-4.39569,-0.577809
1.7361,1.35998,1.7408,0.326233,-4.40754,-0.580526
1.73635,1.35372,1.7803,0.331925,-4.41733,-0.58393
1.73585,1.34735,1.81975,0.330342,-4.42506,-0.588022
1.73459,1.34086,1.85915,0.321483,-4.43073,-0.592801
1.73259,1.33427,1.89851,0.30535,-4.43433,-0.598267
1.72982,1.32756,1.93781,0.28194,-4.43588,-0.604421
1.72631,1.32075,1.97707,0.251256,-4.43536,-0.611263
1.72204,1.31382,2.01628,0.213296,-4.43278,-0.618792
1.71701,1.30678,2.05543,0.16806,-4.42813,-0.627008
1.71123,1.29963,2.09455,0.11555,-4.42143,-0.635912
1.7047,1.29237,2.13361,0.0557634,-4.41266,-0.645503
1.69741,1.285,2.17262,-0.0112981,-4.40183,-0.655782
1.68937,1.27751,2.21159,-0.085635,-4.38894,-0.666749
1.68057,1.26992,2.2505,-0.167247,-4.37398,-0.678403
1.67102,1.26221,2.28937,-0.256135,-4.35696,-0.690744
1.66072,1.25439,2.32819,-0.352298,-4.33789,-0.703773
1.64966,1.24647,2.36696,-0.455736,-4.31674,-0.717489
1.63785,1.23843,2.40568,-0.56645,-4.29354,-0.731893
1.62568,1.23032,2.44438,-0.67797,-4.27005,-0.74599
1.61356,1.22218,2.48306,-0.783826,-4.24803,-0.758788
1.60148,1.214,2.52173,-0.884019,-4.2275,-0.770285
1.58945,1.2058,2.5604,-0.978547,-4.20845,-0.780483
1.57746,1.19757,2.59905,-1.06741,-4.19089,-0.78938
1.56551,1.18931,2.63769,-1.15061,-4.1748,-0.796978
1.55361,1.18102,2.67633,-1.22815,-4.16019,-0.803276
1.54175,1.17269,2.71495,-1.30003,-4.14707,-0.808273
1.52994,1.16434,2.75356,-1.36624,-4.13543,-0.811971
1.51817,1.15595,2.79216,-1.42679,-4.12527,-0.814369
1.50645,1.14754,2.83075,-1.48167,-4.11659,-0.815467
1.49477,1.13909,2.86934,-1.53089,-4.10939,-0.815264
1.48313,1.13062,2.90791,-1.57445,-4.10367,-0.813762
1.47154,1.12211,2.94647,-1.61234,-4.09944,-0.81096
1.45999,1.11357,2.98502,-1.64457,-4.09669,-0.806858
1.44849,1.10501,3.02356,-1.67114,-4.09541,-0.801456
1.43703,1.09641,3.06209,-1.69204,-4.09562,-0.794754
1.42562,1.08778,3.10061,-1.70728,-4.09731,-0.786752
1.41425,1.07912,3.13912,-1.71685,-4.10049,-0.77745
1.40292,1.07043,3.17763,-1.72076,-4.10514,-0.766848
1.39164,1.06171,3.21612,-1.71901,-4.11128,-0.754946
1.3804,1.05296,3.2546,-1.7116,-4.11889,-0.741744
1.36921,1.04418,3.29307,-1.69852,-4.12799,-0.727242
1.35806,1.03537,3.33153,-1.67977,-4.13857,-0.711441
1.34696,1.02653,3.36998,-1.65537,-4.15063,-0.694339
1.33632,1.01799,3.40838,-1.62753,-4.16396,-0.676705
1.32659,1.01006,3.44669,-1.59849,-4.17835,-0.659306
1.31776,1.00276,3.48491,-1.56824,-4.1938,-0.642143
1.30982,0.996082,3.52304,-1.53679,-4.2103,-0.625215
1.30279,0.990024,3.56108,-1.50414,-4.22787,-0.608523
1.29665,0.984589,3.59903,-1.47028,-4.24649,-0.592065
1.29142,0.979776,3.6369,-1.43522,-4.26617,-0.575844
1.28708,0.975585,3.67467,-1.39896,-4.28691,-0.559857
1.28365,0.972015,3.71235,-1.3615,-4.30871,-0.544106
1.28111,0.969068,3.74994,-1.32283,-4.33156,-0.528591
1.27947,0.966743,3.78745,-1.28295,-4.35547,-0.513311
1.27873,0.96504,3.82486,-1.24188,-4.38045,-0.498266
1.27889,0.963959,3.86218,-1.1996,-4.40648,-0.483457
1.27995,0.9635,3.89942,-1.15612,-4.43356,-0.468883
1.28191,0.963663,3.93656,-1.11143,-4.46171,-0.454544
1.28477,0.964449,3.97362,-1.06554,-4.49091,-0.440441
1.28853,0.965856,4.01058,-1.01845,-4.52118,-0.426573
1.29319,0.967885,4.04746,-0.970159,-4.5525,-0.412941
1.29875,0.970536,4.08424,-0.920661,-4.58488,-0.399544
1.30521,0.97381,4.12094,-0.869959,-4.61831,-0.386382
1.31256,0.977705,4.15754,-0.818055,-4.65281,-0.373456
1.32082,0.982223,4.19406,-0.764947,-4.68836,-0.360765
1.32997,0.987362,4.23049,-0.710636,-4.72498,-0.34831
1.34003,0.993124,4.26682,-0.655121,-4.76265,-0.336089
1.6522,1.47046,0.393426,-0.967053,-4.32894,-0.444359
1.64947,1.46743,0.43535,-0.951686,-4.29886,-0.459116
1.64715,1.4643,0.477192,-0.93445,-4.27109,-0.473163
1.64525,1.46106,0.518953,-0.915346,-4.24562,-0.486499
1.64375,1.45772,0.560633,-0.894374,-4.22244,-0.499124
1.64266,1.45427,0.602232,-0.871534,-4.20158,-0.511039
1.64198,1.45072,0.643749,-0.846825,-4.18301,-0.522244
1.64171,1.44707,0.685186,-0.820248,-4.16674,-0.532738
1.64185,1.44331,0.726542,-0.791803,-4.15278,-0.542521
1.6424,1.43945,0.767816,-0.761489,-4.14112,-0.551594
1.64336,1.43548,0.809009,-0.729307,-4.13176,-0.559957
1.64473,1.43141,0.850122,-0.695257,-4.1247,-0.567608
1.64651,1.42723,0.891153,-0.659339,-4.11994,-0.57455
1.6487,1.42295,0.932103,-0.621552,-4.11749,-0.58078
1.65129,1.41857,0.972972,-0.581897,-4.11734,-0.586301
1.6543,1.41408,1.01376,-0.540374,-4.11949,-0.59111
1.65772,1.40949,1.05447,-0.496982,-4.12394,-0.595209
1.66154,1.40479,1.09509,-0.451722,-4.1307,-0.598598
1.66578,1.39999,1.13564,-0.404594,-4.13975,-0.601276
1.67043,1.39508,1.1761,-0.355598,-4.15111,-0.603244
1.67548,1.39007,1.21648,-0.304733,-4.16477,-0.604501
1.68094,1.38495,1.25678,-0.252001,-4.18073,-0.605047
1.68682,1.37974,1.297,-0.197399,-4.199,-0.604883
1.6931,1.37441,1.33714,-0.14093,-4.21956,-0.604008
1.6998,1.36898,1.3772,-0.0825921,-4.24243,-0.602423
1.7069,1.36345,1.41718,-0.0223861,-4.2676,-0.600128
1.71379,1.35782,1.45709,0.0354086,-4.29291,-0.597812
1.71986,1.3521,1.49694,0.0865123,-4.31618,-0.596168
1.72511,1.34629,1.53674,0.130925,-4.33741,-0.595195
1.72954,1.34039,1.57648,0.168647,-4.35661,-0.594893
1.73313,1.3344,1.61617,0.199678,-4.37378,-0.595261
1.73591,1.32831,1.6558,0.224018,-4.38891,-0.596301
1.73786,1.32214,1.69538,0.241667,-4.40201,-0.598012
1.73899,1.31588,1.7349,0.252626,-4.41307,-0.600394
1.73929,1.30952,1.77437,0.256893,-4.4221,-0.603447
1.73877,1.30308,1.81378,0.254469,-4.4291,-0.607171
1.73743,1.29654,1.85313,0.245355,-4.43406,-0.611567
1.73526,1.28991,1.89243,0.22955,-4.43699,-0.616633
1.73227,1.28319,1.93168,0.207053,-4.43788,-0.62237
1.72845,1.27639,1.97087,0.177866,-4.43674,-0.628778
1.72381,1.26949,2.01,0.141988,-4.43356,-0.635858
1.71835,1.2625,2.04908,0.0994186,-4.42835,-0.643608
1.71206,1.25542,2.08811,0.0501586,-4.42111,-0.65203
1.70495,1.24825,2.12707,-0.00579234,-4.41183,-0.661122
1.69701,1.24098,2.16599,-0.0684342,-4.40051,-0.670886
1.68825,1.23363,2.20485,-0.137767,-4.38717,-0.681321
1.67867,1.22619,2.24365,-0.213791,-4.37178,-0.692426
1.66826,1.21866,2.2824,-0.296505,-4.35437,-0.704203
1.65703,1.21103,2.32109,-0.385911,-4.33492,-0.716651
1.64497,1.20332,2.35973,-0.482007,-4.31343,-0.72977
1.63209,1.19551,2.39831,-0.584795,-4.28991,-0.74356
1.61885,1.18764,2.43686,-0.68823,-4.26609,-0.757051
1.60571,1.17972,2.47542,-0.786271,-4.24368,-0.769276
1.59267,1.17175,2.51398,-0.878917,-4.2227,-0.780232
1.57972,1.16375,2.55255,-0.966169,-4.20314,-0.789922
1.56688,1.15569,2.59111,-1.04803,-4.18501,-0.798343
1.55413,1.14759,2.62968,-1.12449,-4.16829,-0.805498
1.54149,1.13945,2.66825,-1.19556,-4.153,-0.811385
1.52895,1.13126,2.70683,-1.26123,-4.13913,-0.816004
1.5165,1.12303,2.7454,-1.32151,-4.12668,-0.819356
1.50415,1.11475,2.78398,-1.37639,-4.11565,-0.82144
1.49191,1.10643,2.82257,-1.42588,-4.10605,-0.822257
1.47976,1.09806,2.86115,-1.46998,-4.09787,-0.821806
1.46772,1.08964,2.89974,-1.50868,-4.09111,-0.820088
1.45577,1.08119,2.93833,-1.54198,-4.08577,-0.817102
1.44392,1.07268,2.97692,-1.56989,-4.08186,-0.812849
1.43217,1.06413,3.01552,-1.59241,-4.07936,-0.807329
1.42052,1.05554,3.05412,-1.60953,-4.07829,-0.80054
1.40897,1.0469,3.09272,-1.62126,-4.07864,-0.792485
1.39752,1.03822,3.13132,-1.62759,-4.08042,-0.783162
1.38617,1.02949,3.16993,-1.62853,-4.08361,-0.772571
1.37492,1.02072,3.20854,-1.62407,-4.08823,-0.760713
1.36377,1.0119,3.24715,-1.61422,-4.09427,-0.747588
1.35272,1.00304,3.28577,-1.59898,-4.10173,-0.733195
1.34177,0.994127,3.32438,-1.57834,-4.11061,-0.717534
1.33092,0.985174,3.363,-1.5523,-4.12092,-0.700606
1.32057,0.976504,3.40158,-1.52313,-4.13257,-0.683149
1.31113,0.968444,3.44006,-1.49308,-4.14547,-0.665903
1.30261,0.960994,3.47845,-1.46215,-4.15964,-0.648867
1.29499,0.954155,3.51675,-1.43033,-4.17506,-0.632042
1.28828,0.947926,3.55496,-1.39764,-4.19175,-0.615426
1.28248,0.942308,3.59308,-1.36407,-4.20969,-0.599021
1.27759,0.937301,3.6311,-1.32962,-4.2289,-0.582827
1.27362,0.932903,3.66903,-1.29429,-4.24936,-0.566842
1.27055,0.929117,3.70687,-1.25808,-4.27108,-0.551069
1.26839,0.92594,3.74462,-1.221,-4.29407,-0.535505
1.26714,0.923374,3.78228,-1.18303,-4.31831,-0.520152
1.2668,0.921419,3.81984,-1.14418,-4.34381,-0.505009
1.26737,0.920074,3.85732,-1.10445,-4.37057,-0.490076
1.26885,0.91934,3.8947,-1.06384,-4.39859,-0.475354
1.27125,0.919216,3.93199,-1.02236,-4.42787,-0.460842
1.27455,0.919702,3.96918,-0.97999,-4.45841,-0.446541
1.27876,0.920799,4.00629,-0.936744,-4.49021,-0.432449
1.28388,0.922506,4.0433,-0.892618,-4.52327,-0.418568
1.28991,0.924824,4.08022,-0.847612,-4.55759,-0.404898
1.29685,0.927752,4.11705,-0.801727,-4.59317,-0.391438
1.3047,0.931291,4.15379,-0.754962,-4.63,-0.378188
1.31346,0.93544,4.19043,-0.707318,-4.6681,-0.365148
1.32313,0.9402,4.22698,-0.658793,-4.70746,-0.352319
1.33371,0.94557,4.26345,-0.60939,-4.74807,-0.3397
1.64253,1.4274,0.389075,-0.966033,-4.28344,-0.425934
1.63997,1.42464,0.430834,-0.947836,-4.25888,-0.44407
1.63784,1.42176,0.472519,-0.928147,-4.23635,-0.461349
1.63613,1.41875,0.514131,-0.906966,-4.21587,-0.477771
1.63485,1.41562,0.55567,-0.884294,-4.19741,-0.493336
1.634,1.41236,0.597136,-0.860129,-4.181,-0.508044
1.63357,1.40898,0.638529,-0.834473,-4.16662,-0.521895
1.63357,1.40547,0.679848,-0.807325,-4.15427,-0.534889
1.634,1.40183,0.721094,-0.778685,-4.14397,-0.547025
1.63485,1.39806,0.762266,-0.748553,-4.13569,-0.558305
1.63613,1.39417,0.803366,-0.716929,-4.12946,-0.568727
1.63783,1.39016,0.844392,-0.683814,-4.12526,-0.578293
1.63997,1.38602,0.885345,-0.649207,-4.12309,-0.587001
1.64252,1.38175,0.926225,-0.613107,-4.12297,-0.594852
1.64551,1.37736,0.967031,-0.575516,-4.12487,-0.601846
1.64892,1.37284,1.00776,-0.536433,-4.12882,-0.607983
1.65275,1.36819,1.04842,-0.495859,-4.1348,-0.613263
1.65702,1.36342,1.08901,-0.453792,-4.14281,-0.617686
1.66171,1.35852,1.12952,-0.410234,-4.15287,-0.621252
1.66682,1.3535,1.16996,-0.365183,-4.16495,-0.623961
1.67236,1.34835,1.21033,-0.318641,-4.17908,-0.625812
1.67833,1.34307,1.25062,-0.270607,-4.19524,-0.626807
1.68473,1.33767,1.29084,-0.221081,-4.21343,-0.626944
1.69155,1.33215,1.33099,-0.170064,-4.23367,-0.626224
1.69879,1.32649,1.37107,-0.117554,-4.25593,-0.624647
1.70647,1.32071,1.41107,-0.0635529,-4.28024,-0.622214
1.71391,1.31484,1.451,-0.0118588,-4.30456,-0.619678
1.72047,1.30889,1.49087,0.0337288,-4.32687,-0.617798
1.72613,1.30287,1.53068,0.0732099,-4.34718,-0.616572
1.73091,1.29678,1.57043,0.106585,-4.36548,-0.616001
1.7348,1.29062,1.61011,0.133853,-4.38177,-0.616084
1.73781,1.28439,1.64974,0.155015,-4.39606,-0.616822
1.73992,1.27809,1.6893,0.17007,-4.40834,-0.618215
1.74115,1.27172,1.7288,0.179019,-4.41861,-0.620263
1.74149,1.26528,1.76823,0.181861,-4.42688,-0.622965
1.74094,1.25876,1.80761,0.178597,-4.43314,-0.626321
1.7395,1.25218,1.84692,0.169226,-4.43739,-0.630332
1.73718,1.24553,1.88617,0.153749,-4.43964,-0.634998
1.73396,1.23881,1.92536,0.132166,-4.43988,-0.640319
1.72986,1.23201,1.96449,0.104476,-4.43812,-0.646294
1.72488,1.22515,2.00356,0.0706798,-4.43435,-0.652924
1.719,1.21821,2.04256,0.0307769,-4.42857,-0.660208
1.71223,1.21121,2.0815,-0.0152324,-4.42079,-0.668147
1.70458,1.20413,2.12039,-0.0673481,-4.411,-0.676741
1.69604,1.19699,2.1592,-0.12557,-4.3992,-0.685989
1.68661,1.18977,2.19796,-0.189899,-4.3854,-0.695892
1.6763,1.18248,2.23665,-0.260334,-4.36959,-0.70645
1.66509,1.17512,2.27529,-0.336876,-4.35177,-0.717662
1.653,1.1677,2.31386,-0.419524,-4.33195,-0.729529
1.64002,1.1602,2.35237,-0.508278,-4.31012,-0.742051
1.62615,1.15263,2.39081,-0.603139,-4.28628,-0.755227
1.61192,1.14499,2.42924,-0.698491,-4.26213,-0.768113
1.59783,1.1373,2.46768,-0.788716,-4.23933,-0.779764
1.5839,1.12955,2.50613,-0.873816,-4.2179,-0.79018
1.57012,1.12174,2.5446,-0.953791,-4.19783,-0.799361
1.5565,1.11387,2.58308,-1.02864,-4.17913,-0.807307
1.54302,1.10594,2.62158,-1.09836,-4.16178,-0.814018
1.5297,1.09796,2.6601,-1.16296,-4.1458,-0.819494
1.51653,1.08991,2.69863,-1.22243,-4.13119,-0.823734
1.50351,1.0818,2.73717,-1.27678,-4.11793,-0.82674
1.49064,1.07364,2.77573,-1.326,-4.10604,-0.828511
1.47793,1.06542,2.81431,-1.37009,-4.09551,-0.829047
1.46537,1.05714,2.8529,-1.40906,-4.08635,-0.828348
1.45296,1.0488,2.89151,-1.44291,-4.07854,-0.826414
1.4407,1.0404,2.93013,-1.47163,-4.0721,-0.823245
1.42859,1.03194,2.96876,-1.49522,-4.06703,-0.81884
1.41664,1.02342,3.00742,-1.51368,-4.06331,-0.813201
1.40484,1.01484,3.04608,-1.52703,-4.06096,-0.806327
1.39319,1.00621,3.08476,-1.53524,-4.05997,-0.798218
1.38169,0.997515,3.12346,-1.53833,-4.06034,-0.788874
1.37035,0.988762,3.16217,-1.5363,-4.06208,-0.778294
1.35916,0.97995,3.2009,-1.52913,-4.06518,-0.76648
1.34812,0.971079,3.23965,-1.51685,-4.06964,-0.753431
1.33723,0.962149,3.2784,-1.49943,-4.07547,-0.739147
1.32649,0.953161,3.31718,-1.4769,-4.08265,-0.723627
1.31591,0.944113,3.35597,-1.44923,-4.09121,-0.706873
1.30586,0.935335,3.39472,-1.41873,-4.10117,-0.689594
1.29673,0.927153,3.43337,-1.38767,-4.11259,-0.6725
1.28852,0.919568,3.47193,-1.35605,-4.12548,-0.655591
1.28122,0.912581,3.5104,-1.32388,-4.13982,-0.638868
1.27484,0.906189,3.54877,-1.29115,-4.15563,-0.62233
1.26937,0.900395,3.58705,-1.25786,-4.17289,-0.605977
1.26483,0.895198,3.62524,-1.22402,-4.19162,-0.58981
1.2612,0.890597,3.66333,-1.18963,-4.21181,-0.573828
1.25848,0.886594,3.70133,-1.15467,-4.23346,-0.558031
1.25669,0.883187,3.73923,-1.11916,-4.25657,-0.542419
1.25581,0.880377,3.77704,-1.0831,-4.28114,-0.526993
1.25585,0.878164,3.81476,-1.04648,-4.30717,-0.511752
1.2568,0.876548,3.85238,-1.0093,-4.33466,-0.496696
1.25868,0.875529,3.88991,-0.971569,-4.36362,-0.481825
1.26147,0.875106,3.92735,-0.93328,-4.39403,-0.46714
1.26517,0.87528,3.96469,-0.894435,-4.42591,-0.45264
1.2698,0.876052,4.00193,-0.855034,-4.45924,-0.438326
1.27534,0.87742,4.03909,-0.815077,-4.49404,-0.424196
1.2818,0.879385,4.07614,-0.774564,-4.5303,-0.410252
1.28917,0.881946,4.11311,-0.733495,-4.56802,-0.396493
1.29746,0.885105,4.14998,-0.691869,-4.6072,-0.38292
1.30667,0.888861,4.18676,-0.649688,-4.64784,-0.369532
1.3168,0.893213,4.22344,-0.606951,-4.68994,-0.356329
1.32784,0.898162,4.26003,-0.563658,-4.7335,-0.343311
1.63287,1.38479,0.384908,-0.965013,-4.23793,-0.407508
1.63051,1.38225,0.426468,-0.943986,-4.21889,-0.429024
1.62859,1.37957,0.467965,-0.921844,-4.20162,-0.449536
1.62711,1.37674,0.509397,-0.898587,-4.18611,-0.469044
1.62606,1.37377,0.550766,-0.874213,-4.17238,-0.487548
1.62546,1.37065,0.592071,-0.848725,-4.16042,-0.505049
1.62529,1.36739,0.633311,-0.822121,-4.15023,-0.521546
1.62556,1.36398,0.674488,-0.794402,-4.14181,-0.53704
1.62628,1.36043,0.715601,-0.765567,-4.13515,-0.55153
1.62743,1.35673,0.75665,-0.735617,-4.13027,-0.565016
1.62902,1.35289,0.797635,-0.704552,-4.12716,-0.577498
1.63105,1.3489,0.838556,-0.672371,-4.12582,-0.588977
1.63352,1.34477,0.879413,-0.639074,-4.12624,-0.599453
1.63643,1.34049,0.920206,-0.604663,-4.12844,-0.608924
1.63978,1.33607,0.960935,-0.569136,-4.13241,-0.617392
1.64357,1.3315,1.0016,-0.532493,-4.13815,-0.624857
1.6478,1.32679,1.0422,-0.494735,-4.14565,-0.631317
1.65247,1.32193,1.08274,-0.455862,-4.15493,-0.636774
1.65758,1.31693,1.12321,-0.415873,-4.16598,-0.641228
1.66312,1.31178,1.16362,-0.374769,-4.1788,-0.644678
1.66911,1.30649,1.20397,-0.332549,-4.19339,-0.647124
1.67553,1.30105,1.24425,-0.289214,-4.20974,-0.648566
1.6824,1.29547,1.28447,-0.244763,-4.22787,-0.649005
1.6897,1.28974,1.32462,-0.199198,-4.24777,-0.64844
1.69744,1.28387,1.36471,-0.152516,-4.26944,-0.646872
1.70563,1.27785,1.40473,-0.10472,-4.29287,-0.644299
1.71356,1.27173,1.44469,-0.0591262,-4.31621,-0.641545
1.72054,1.26557,1.48458,-0.0190548,-4.33756,-0.639428
1.72658,1.25935,1.52441,0.0154946,-4.35694,-0.63795
1.73167,1.25308,1.56416,0.0445221,-4.37434,-0.637109
1.73581,1.24676,1.60385,0.0680275,-4.38976,-0.636907
1.73901,1.24039,1.64346,0.0860109,-4.4032,-0.637344
1.74126,1.23397,1.68301,0.0984723,-4.41466,-0.638418
1.74257,1.2275,1.72249,0.105412,-4.42414,-0.640131
1.74293,1.22098,1.76191,0.106829,-4.43165,-0.642482
1.74234,1.21441,1.80125,0.102725,-4.43718,-0.645471
1.74081,1.20779,1.84053,0.0930981,-4.44072,-0.649098
1.73834,1.20112,1.87973,0.0779495,-4.44229,-0.653364
1.73491,1.1944,1.91887,0.0572789,-4.44188,-0.658268
1.73054,1.18762,1.95794,0.0310864,-4.4395,-0.66381
1.72523,1.1808,1.99694,-0.0006282,-4.43513,-0.66999
1.71896,1.17393,2.03588,-0.0378648,-4.42879,-0.676808
1.71175,1.167,2.07474,-0.0806233,-4.42046,-0.684265
1.7036,1.16003,2.11354,-0.128904,-4.41016,-0.69236
1.6945,1.153,2.15227,-0.182706,-4.39788,-0.701093
1.68445,1.14592,2.19093,-0.242031,-4.38363,-0.710464
1.67346,1.1388,2.22952,-0.306878,-4.36739,-0.720474
1.66152,1.13162,2.26804,-0.377246,-4.34917,-0.731121
1.64864,1.12439,2.3065,-0.453137,-4.32898,-0.742407
1.63481,1.11711,2.34488,-0.534549,-4.30681,-0.754332
1.62003,1.10978,2.3832,-0.621484,-4.28266,-0.766894
1.60488,1.10239,2.4215,-0.708751,-4.25817,-0.779174
1.58993,1.09493,2.45983,-0.791161,-4.23498,-0.790252
1.57519,1.0874,2.49818,-0.868715,-4.2131,-0.800127
1.56065,1.07979,2.53656,-0.941413,-4.19252,-0.8088
1.54631,1.07211,2.57497,-1.00925,-4.17325,-0.81627
1.53217,1.06436,2.6134,-1.07224,-4.15528,-0.822537
1.51823,1.05653,2.65186,-1.13036,-4.13861,-0.827602
1.5045,1.04864,2.69035,-1.18363,-4.12325,-0.831465
1.49096,1.04067,2.72887,-1.23205,-4.10919,-0.834125
1.47763,1.03263,2.76741,-1.27561,-4.09643,-0.835582
1.46451,1.02452,2.80598,-1.31431,-4.08497,-0.835837
1.45158,1.01633,2.84458,-1.34815,-4.07482,-0.83489
1.43886,1.00807,2.88321,-1.37714,-4.06598,-0.83274
1.42634,0.999743,2.92186,-1.40127,-4.05844,-0.829387
1.41402,0.991341,2.96055,-1.42054,-4.0522,-0.824832
1.4019,0.982867,2.99925,-1.43496,-4.04726,-0.819074
1.38998,0.974321,3.03799,-1.44452,-4.04363,-0.812114
1.37827,0.965702,3.07675,-1.44922,-4.0413,-0.803951
1.36676,0.957012,3.11554,-1.44907,-4.04027,-0.794585
1.35545,0.948249,3.15436,-1.44406,-4.04055,-0.784017
1.34434,0.939413,3.19321,-1.4342,-4.04213,-0.772247
1.33344,0.930506,3.23208,-1.41947,-4.04502,-0.759274
1.32273,0.921526,3.27098,-1.39989,-4.0492,-0.745099
1.31223,0.912474,3.30991,-1.37546,-4.0547,-0.729721
1.30193,0.90335,3.34887,-1.34616,-4.06149,-0.71314
1.2922,0.89448,3.38779,-1.31433,-4.06977,-0.696038
1.28338,0.886192,3.42661,-1.28226,-4.07971,-0.679097
1.27549,0.878485,3.46534,-1.24996,-4.09131,-0.662316
1.26851,0.871359,3.50398,-1.21742,-4.10458,-0.645695
1.26246,0.864814,3.54252,-1.18465,-4.11951,-0.629234
1.25733,0.85885,3.58096,-1.15165,-4.13609,-0.612933
1.25311,0.853468,3.61931,-1.11842,-4.15435,-0.596793
1.24982,0.848667,3.65756,-1.08496,-4.17426,-0.580813
1.24745,0.844447,3.69571,-1.05126,-4.19583,-0.564993
1.24601,0.840809,3.73377,-1.01733,-4.21907,-0.549333
1.24548,0.837752,3.77174,-0.983172,-4.24397,-0.533834
1.24587,0.835276,3.80961,-0.948779,-4.27053,-0.518494
1.24719,0.833381,3.84738,-0.914153,-4.29876,-0.503315
1.24942,0.832067,3.88506,-0.879294,-4.32865,-0.488297
1.25258,0.831335,3.92264,-0.844203,-4.36019,-0.473438
1.25666,0.831184,3.96013,-0.80888,-4.39341,-0.45874
1.26166,0.831614,3.99752,-0.773324,-4.42828,-0.444202
1.26758,0.832625,4.03482,-0.737536,-4.46481,-0.429824
1.27442,0.834218,4.07202,-0.701515,-4.50301,-0.415606
1.28218,0.836392,4.10912,-0.665262,-4.54287,-0.401549
1.29086,0.839147,4.14613,-0.628777,-4.58439,-0.387652
1.30046,0.842484,4.18304,-0.592059,-4.62758,-0.373915
1.31099,0.846401,4.21986,-0.555109,-4.67242,-0.360338
1.32243,0.8509,4.25658,-0.517926,-4.71893,-0.346922
1.62323,1.34264,0.380925,-0.963993,-4.19243,-0.389083
1.62109,1.34027,0.422253,-0.940137,-4.1789,-0.413978
1.6194,1.33773,0.463529,-0.915541,-4.16688,-0.437722
1.61816,1.33503,0.504751,-0.890207,-4.15636,-0.460316
1.61737,1.33217,0.545919,-0.864133,-4.14735,-0.48176
1.61703,1.32915,0.587035,-0.837321,-4.13984,-0.502054
1.61713,1.32597,0.628098,-0.809769,-4.13384,-0.521197
1.61769,1.32263,0.669107,-0.781479,-4.12934,-0.539191
1.61869,1.31912,0.710063,-0.75245,-4.12634,-0.556034
1.62014,1.31546,0.750966,-0.722681,-4.12485,-0.571727
1.62204,1.31163,0.791816,-0.692174,-4.12486,-0.586269
1.62439,1.30764,0.832613,-0.660928,-4.12637,-0.599662
1.62718,1.30349,0.873356,-0.628942,-4.12939,-0.611904
1.63043,1.29918,0.914046,-0.596218,-4.13392,-0.622996
1.63412,1.29471,0.954683,-0.562755,-4.13994,-0.632938
1.63827,1.29007,0.995267,-0.528553,-4.14748,-0.64173
1.64286,1.28528,1.0358,-0.493611,-4.15651,-0.649371
1.6479,1.28032,1.07628,-0.457931,-4.16705,-0.655862
1.65339,1.2752,1.1167,-0.421512,-4.17909,-0.661204
1.65933,1.26992,1.15707,-0.384354,-4.19264,-0.665394
1.66571,1.26448,1.19739,-0.346457,-4.20769,-0.668435
1.67255,1.25888,1.23765,-0.307821,-4.22425,-0.670326
1.67983,1.25312,1.27786,-0.268446,-4.24231,-0.671066
1.68756,1.24719,1.31802,-0.228331,-4.26187,-0.670656
1.69574,1.2411,1.35813,-0.187478,-4.28294,-0.669096
1.70437,1.23486,1.39818,-0.145886,-4.30551,-0.666385
1.71273,1.22851,1.43817,-0.106394,-4.32786,-0.663411
1.72008,1.22214,1.47808,-0.0718383,-4.34826,-0.661058
1.72644,1.21573,1.51792,-0.0422206,-4.3667,-0.659327
1.7318,1.20929,1.55768,-0.0175405,-4.3832,-0.658218
1.73616,1.20282,1.59737,0.00220214,-4.39774,-0.657731
1.73953,1.19633,1.63699,0.0170072,-4.41034,-0.657865
1.74189,1.1898,1.67653,0.0268748,-4.42098,-0.658621
1.74326,1.18324,1.71599,0.0318048,-4.42968,-0.659999
1.74362,1.17664,1.75538,0.0317973,-4.43642,-0.661999
1.74299,1.17002,1.7947,0.0268522,-4.44121,-0.664621
1.74136,1.16337,1.83394,0.0169696,-4.44406,-0.667864
1.73874,1.15668,1.87311,0.00214947,-4.44495,-0.671729
1.73511,1.14997,1.9122,-0.0176082,-4.44389,-0.676216
1.73049,1.14322,1.95122,-0.0423034,-4.44088,-0.681325
1.72486,1.13645,1.99016,-0.0719362,-4.43592,-0.687056
1.71824,1.12964,2.02903,-0.106506,-4.42901,-0.693408
1.71062,1.1228,2.06782,-0.146014,-4.42014,-0.700383
1.702,1.11593,2.10654,-0.19046,-4.40933,-0.707979
1.69239,1.10903,2.14518,-0.239843,-4.39657,-0.716196
1.68177,1.1021,2.18375,-0.294163,-4.38186,-0.725036
1.67016,1.09513,2.22225,-0.353421,-4.36519,-0.734497
1.65755,1.08814,2.26066,-0.417616,-4.34658,-0.744581
1.64394,1.08112,2.29901,-0.48675,-4.32601,-0.755286
1.62933,1.07406,2.33728,-0.56082,-4.30349,-0.766613
1.61372,1.06698,2.37548,-0.639828,-4.27903,-0.778561
1.59774,1.05983,2.41365,-0.719011,-4.25421,-0.790236
1.58201,1.0526,2.45187,-0.793607,-4.23063,-0.80074
1.56653,1.04529,2.49013,-0.863614,-4.2083,-0.810074
1.55129,1.03789,2.52842,-0.929034,-4.18721,-0.818239
1.53631,1.03041,2.56676,-0.989867,-4.16737,-0.825233
1.52158,1.02284,2.60513,-1.04611,-4.14877,-0.831057
1.50709,1.01518,2.64355,-1.09777,-4.13142,-0.835711
1.49285,1.00744,2.682,-1.14484,-4.1153,-0.839196
1.47887,0.999621,2.72049,-1.18732,-4.10044,-0.84151
1.46513,0.991712,2.75902,-1.22521,-4.08682,-0.842654
1.45164,0.983718,2.79759,-1.25852,-4.07444,-0.842628
1.4384,0.975639,2.8362,-1.28724,-4.0633,-0.841431
1.42541,0.967476,2.87485,-1.31137,-4.05341,-0.839065
1.41267,0.959227,2.91354,-1.33091,-4.04477,-0.835529
1.40018,0.950894,2.95227,-1.34587,-4.03737,-0.830823
1.38794,0.942475,2.99103,-1.35623,-4.03121,-0.824946
1.37595,0.933971,3.02984,-1.36201,-4.02629,-0.8179
1.36421,0.925383,3.06869,-1.36321,-4.02263,-0.809684
1.35271,0.916709,3.10757,-1.35981,-4.0202,-0.800297
1.34147,0.907951,3.14649,-1.35183,-4.01902,-0.789741
1.33047,0.899107,3.18546,-1.33926,-4.01908,-0.778014
1.31973,0.890179,3.22446,-1.3221,-4.02039,-0.765117
1.30923,0.881165,3.2635,-1.30035,-4.02294,-0.751051
1.29899,0.872067,3.30258,-1.27402,-4.02674,-0.735814
1.28899,0.862884,3.3417,-1.2431,-4.03178,-0.719407
1.27958,0.853939,3.38079,-1.20993,-4.03837,-0.702483
1.27109,0.845559,3.41979,-1.17685,-4.04683,-0.685694
1.26352,0.837742,3.45869,-1.14386,-4.05715,-0.66904
1.25687,0.830489,3.49749,-1.11096,-4.06934,-0.652521
1.25114,0.823799,3.53619,-1.07816,-4.08338,-0.636137
1.24634,0.817673,3.57479,-1.04545,-4.0993,-0.619889
1.24246,0.812111,3.6133,-1.01282,-4.11707,-0.603776
1.2395,0.807112,3.65171,-0.980292,-4.13671,-0.587798
1.23746,0.802677,3.69003,-0.947852,-4.15821,-0.571955
1.23634,0.798806,3.72825,-0.915503,-4.18158,-0.556247
1.23615,0.795498,3.76637,-0.883245,-4.20681,-0.540675
1.23687,0.792753,3.80439,-0.851079,-4.2339,-0.525237
1.23852,0.790573,3.84232,-0.819003,-4.26285,-0.509935
1.24109,0.788956,3.88014,-0.787019,-4.29367,-0.494768
1.24458,0.787902,3.91788,-0.755126,-4.32636,-0.479736
1.249,0.787412,3.95551,-0.723325,-4.3609,-0.46484
1.25433,0.787486,3.99305,-0.691614,-4.39731,-0.450078
1.26059,0.788123,4.03049,-0.659995,-4.43559,-0.435452
1.26777,0.789324,4.06783,-0.628467,-4.47572,-0.420961
1.27587,0.791089,4.10508,-0.59703,-4.51772,-0.406605
1.28489,0.793417,4.14223,-0.565684,-4.56159,-0.392384
1.29483,0.796309,4.17928,-0.53443,-4.60731,-0.378298
1.3057,0.799765,4.21623,-0.503267,-4.65491,-0.364348
1.31748,0.803784,4.25309,-0.472195,-4.70436,-0.350532
1.61359,1.30094,0.377126,-0.962973,-4.14692,-0.370658
1.61171,1.29868,0.418189,-0.936287,-4.13891,-0.398931
1.61028,1.29623,0.45921,-0.909238,-4.13214,-0.425908
1.6093,1.29362,0.500191,-0.881827,-4.12661,-0.451588
1.60878,1.29083,0.541131,-0.854053,-4.12232,-0.475972
1.60871,1.28786,0.58203,-0.825917,-4.11926,-0.499058
1.6091,1.28472,0.622887,-0.797418,-4.11745,-0.520848
1.60994,1.2814,0.663704,-0.768556,-4.11687,-0.541341
1.61123,1.27791,0.70448,-0.739332,-4.11753,-0.560538
1.61298,1.27424,0.745215,-0.709746,-4.11942,-0.578437
1.61518,1.27039,0.785909,-0.679796,-4.12256,-0.59504
1.61784,1.26638,0.826562,-0.649485,-4.12693,-0.610346
1.62095,1.26218,0.867175,-0.61881,-4.13254,-0.624356
1.62451,1.25782,0.907746,-0.587774,-4.13939,-0.637068
1.62853,1.25327,0.948276,-0.556374,-4.14748,-0.648484
1.633,1.24855,0.988765,-0.524612,-4.1568,-0.658603
1.63793,1.24366,1.02921,-0.492488,-4.16737,-0.667425
1.64331,1.23859,1.06962,-0.460001,-4.17917,-0.674951
1.64915,1.23335,1.10999,-0.427151,-4.19221,-0.681179
1.65544,1.22793,1.15031,-0.393939,-4.20648,-0.686111
1.66218,1.22233,1.1906,-0.360365,-4.222,-0.689747
1.66938,1.21657,1.23084,-0.326427,-4.23875,-0.692085
1.67703,1.21062,1.27104,-0.292128,-4.25674,-0.693127
1.68513,1.2045,1.31121,-0.257465,-4.27597,-0.692872
1.69369,1.19821,1.35133,-0.222441,-4.29644,-0.69132
1.70271,1.19174,1.39141,-0.187053,-4.31815,-0.688471
1.71143,1.18517,1.43142,-0.153661,-4.33951,-0.685277
1.7191,1.1786,1.47136,-0.124622,-4.35895,-0.682688
1.72573,1.17201,1.51122,-0.0999359,-4.37647,-0.680705
1.73132,1.16542,1.551,-0.079603,-4.39206,-0.679326
1.73586,1.15881,1.59069,-0.0636232,-4.40573,-0.678554
1.73935,1.15219,1.63031,-0.0519964,-4.41748,-0.678386
1.7418,1.14555,1.66984,-0.0447228,-4.42731,-0.678824
1.74321,1.13891,1.70929,-0.0418022,-4.43521,-0.679868
1.74357,1.13226,1.74867,-0.0432346,-4.44119,-0.681516
1.74288,1.12559,1.78796,-0.0490202,-4.44525,-0.683771
1.74115,1.11891,1.82717,-0.0591588,-4.44739,-0.68663
1.73838,1.11222,1.8663,-0.0736505,-4.4476,-0.690095
1.73456,1.10552,1.90535,-0.0924953,-4.44589,-0.694165
1.7297,1.09881,1.94432,-0.115693,-4.44226,-0.698841
1.72379,1.09208,1.9832,-0.143244,-4.4367,-0.704122
1.71683,1.08535,2.02201,-0.175148,-4.42922,-0.710008
1.70883,1.0786,2.06074,-0.211405,-4.41982,-0.7165
1.69979,1.07184,2.09938,-0.252015,-4.4085,-0.723597
1.6897,1.06507,2.13794,-0.296979,-4.39525,-0.7313
1.67857,1.05829,2.17643,-0.346295,-4.38008,-0.739608
1.66639,1.05149,2.21483,-0.399964,-4.36299,-0.748521
1.65317,1.04469,2.25315,-0.457987,-4.34398,-0.75804
1.6389,1.03787,2.29139,-0.520362,-4.32304,-0.768164
1.62359,1.03104,2.32955,-0.587091,-4.30018,-0.778893
1.60723,1.0242,2.36763,-0.658173,-4.2754,-0.790228
1.5905,1.01731,2.4057,-0.729272,-4.25025,-0.801297
1.57406,1.01032,2.44381,-0.796052,-4.22628,-0.811228
1.55792,1.00323,2.48198,-0.858513,-4.2035,-0.820022
1.54207,0.996044,2.52019,-0.916656,-4.1819,-0.827678
1.52651,0.988762,2.55846,-0.97048,-4.16149,-0.834196
1.51125,0.981382,2.59678,-1.01999,-4.14226,-0.839577
1.49628,0.973905,2.63515,-1.06517,-4.12422,-0.84382
1.4816,0.966331,2.67357,-1.10604,-4.10736,-0.846926
1.46722,0.95866,2.71204,-1.14259,-4.09169,-0.848894
1.45313,0.950892,2.75056,-1.17482,-4.0772,-0.849725
1.43934,0.943026,2.78913,-1.20273,-4.0639,-0.849418
1.42584,0.935064,2.82775,-1.22632,-4.05178,-0.847973
1.41263,0.927004,2.86643,-1.2456,-4.04085,-0.845391
1.39972,0.918848,2.90515,-1.26055,-4.0311,-0.841671
1.3871,0.910594,2.94393,-1.27119,-4.02254,-0.836814
1.37477,0.902243,2.98275,-1.27751,-4.01516,-0.830819
1.36274,0.893795,3.02163,-1.27951,-4.00896,-0.823687
1.351,0.88525,3.06056,-1.27719,-4.00395,-0.815417
1.33956,0.876608,3.09954,-1.27055,-4.00013,-0.806009
1.32841,0.867868,3.13857,-1.25959,-3.99749,-0.795464
1.31756,0.859032,3.17765,-1.24432,-3.99604,-0.783781
1.30699,0.850098,3.21678,-1.22472,-3.99577,-0.770961
1.29673,0.841067,3.25596,-1.20081,-3.99668,-0.757003
1.28675,0.831939,3.29519,-1.17258,-3.99878,-0.741907
1.27707,0.822714,3.33448,-1.14003,-4.00207,-0.725674
1.268,0.813713,3.37374,-1.10553,-4.00698,-0.708927
1.25984,0.805255,3.4129,-1.07144,-4.01395,-0.692291
1.25261,0.797342,3.45196,-1.03777,-4.02299,-0.675764
1.24629,0.789972,3.49093,-1.00451,-4.03409,-0.659348
1.24089,0.783146,3.52979,-0.971665,-4.04726,-0.643041
1.23642,0.776864,3.56856,-0.939237,-4.0625,-0.626845
1.23286,0.771127,3.60723,-0.907223,-4.07979,-0.610759
1.23022,0.765933,3.6458,-0.875625,-4.09916,-0.594783
1.2285,0.761283,3.68427,-0.844441,-4.12059,-0.578917
1.2277,0.757177,3.72265,-0.813672,-4.14408,-0.563161
1.22781,0.753615,3.76093,-0.783318,-4.16964,-0.547516
1.22885,0.750598,3.7991,-0.753379,-4.19726,-0.53198
1.23081,0.748124,3.83718,-0.723854,-4.22695,-0.516555
1.23368,0.746194,3.87516,-0.694744,-4.2587,-0.501239
1.23748,0.744808,3.91305,-0.66605,-4.29252,-0.486034
1.24219,0.743966,3.95083,-0.63777,-4.3284,-0.470939
1.24782,0.743668,3.98852,-0.609904,-4.36635,-0.455954
1.25438,0.743914,4.02611,-0.582454,-4.40636,-0.44108
1.26185,0.744704,4.0636,-0.555418,-4.44843,-0.426315
1.27024,0.746038,4.10099,-0.528798,-4.49258,-0.41166
1.27955,0.747915,4.13828,-0.502592,-4.53878,-0.397116
1.28977,0.750337,4.17547,-0.476801,-4.58705,-0.382682
1.30092,0.753303,4.21257,-0.451425,-4.63739,-0.368357
1.31299,0.756813,4.24957,-0.426463,-4.68979,-0.354143
1.60397,1.2597,0.373512,-0.961953,-4.10142,-0.352232
1.60237,1.25749,0.414275,-0.932437,-4.09893,-0.383885
1.60122,1.25509,0.45501,-0.902935,-4.09741,-0.414095
1.60053,1.2525,0.495719,-0.873447,-4.09686,-0.442861
1.60029,1.24973,0.5364,-0.843973,-4.09729,-0.470184
1.60051,1.24677,0.577054,-0.814512,-4.09869,-0.496063
1.60118,1.24362,0.617681,-0.785066,-4.10106,-0.520499
1.60231,1.24029,0.65828,-0.755633,-4.1044,-0.543492
1.6039,1.23677,0.698852,-0.726215,-4.10871,-0.565042
1.60594,1.23307,0.739397,-0.69681,-4.114,-0.585148
1.60844,1.22918,0.779915,-0.667419,-4.12026,-0.603811
1.6114,1.2251,0.820406,-0.638042,-4.12749,-0.621031
1.61481,1.22084,0.860869,-0.608678,-4.13569,-0.636807
1.61867,1.21639,0.901305,-0.579329,-4.14487,-0.65114
1.623,1.21176,0.941713,-0.549994,-4.15501,-0.66403
1.62778,1.20694,0.982095,-0.520672,-4.16613,-0.675476
1.63301,1.20193,1.02245,-0.491364,-4.17822,-0.685479
1.6387,1.19674,1.06278,-0.462071,-4.19129,-0.694039
1.64485,1.19136,1.10308,-0.432791,-4.20532,-0.701155
1.65145,1.18579,1.14335,-0.403525,-4.22033,-0.706828
1.65851,1.18004,1.18359,-0.374272,-4.23631,-0.711058
1.66602,1.17411,1.22381,-0.345034,-4.25326,-0.713845
1.67399,1.16798,1.264,-0.31581,-4.27118,-0.715188
1.68241,1.16167,1.30417,-0.286599,-4.29007,-0.715087
1.6913,1.15518,1.3443,-0.257403,-4.30994,-0.713544
1.70063,1.14849,1.38441,-0.22822,-4.33078,-0.710557
1.70966,1.14172,1.42446,-0.200928,-4.35116,-0.707143
1.71759,1.13496,1.46443,-0.177405,-4.36964,-0.704318
1.72444,1.1282,1.50431,-0.157651,-4.38623,-0.702082
1.73021,1.12145,1.5441,-0.141666,-4.40092,-0.700435
1.73489,1.11471,1.5838,-0.129449,-4.41372,-0.699377
1.73849,1.10798,1.62342,-0.121,-4.42462,-0.698908
1.741,1.10125,1.66295,-0.11632,-4.43363,-0.699027
1.74242,1.09453,1.7024,-0.115409,-4.44075,-0.699736
1.74276,1.08782,1.74175,-0.118267,-4.44597,-0.701034
1.74201,1.08112,1.78102,-0.124893,-4.44929,-0.70292
1.74018,1.07442,1.82021,-0.135287,-4.45072,-0.705396
1.73726,1.06773,1.85931,-0.149451,-4.45025,-0.708461
1.73326,1.06105,1.89832,-0.167382,-4.44789,-0.712114
1.72817,1.05438,1.93724,-0.189083,-4.44364,-0.716357
1.722,1.04771,1.97608,-0.214552,-4.43749,-0.721188
1.71474,1.04105,2.01483,-0.24379,-4.42944,-0.726608
1.70639,1.0344,2.05349,-0.276796,-4.4195,-0.732618
1.69696,1.02776,2.09207,-0.313571,-4.40767,-0.739216
1.68645,1.02112,2.13056,-0.354115,-4.39394,-0.746403
1.67485,1.0145,2.16896,-0.398427,-4.37831,-0.75418
1.66216,1.00787,2.20727,-0.446508,-4.3608,-0.762545
1.64839,1.00126,2.2455,-0.498357,-4.34138,-0.771499
1.63353,0.994656,2.28365,-0.553975,-4.32007,-0.781042
1.61759,0.988058,2.3217,-0.613362,-4.29687,-0.791174
1.60056,0.981468,2.35967,-0.676517,-4.27177,-0.801895
1.58316,0.974827,2.39763,-0.739532,-4.24629,-0.812358
1.56609,0.968077,2.43565,-0.798497,-4.22193,-0.821716
1.54936,0.961219,2.47373,-0.853412,-4.1987,-0.829969
1.53296,0.954252,2.51187,-0.904278,-4.17659,-0.837117
1.5169,0.947176,2.55007,-0.951093,-4.15561,-0.843159
1.50118,0.939992,2.58834,-0.993859,-4.13576,-0.848097
1.48579,0.932699,2.62667,-1.03258,-4.11703,-0.851929
1.47073,0.925297,2.66506,-1.06724,-4.09942,-0.854657
1.45602,0.917787,2.70351,-1.09786,-4.08294,-0.856279
1.44163,0.910168,2.74203,-1.12443,-4.06759,-0.856796
