# .PCD v0.7 - Point Cloud Data file format
VERSION 0.7
FIELDS x y z
SIZE 4 4 4
TYPE F F F
COUNT 1 1 1
WIDTH 1527
HEIGHT 1
VIEWPOINT 0 0 0 1 0 0 0
POINTS 1527
DATA ascii
1.3582277 -0.44843119 2.6360741
1.3612258 -0.46778867 2.6363766
1.3708513 0.23320132 2.6181459
1.3686773 0.21087022 2.6097105
1.3650801 0.18228251 2.6085923
1.3613659 0.15231462 2.6081946
1.357691 0.12170859 2.6083624
1.3542628 0.091358542 2.6084609
1.3511747 0.061882067 2.6082957
1.3482691 0.031668119 2.6081314
1.3456101 0.0015658569 2.6085668
1.3433595 -0.028075777 2.6081712
1.3414443 -0.057901721 2.6074114
1.3397496 -0.088255718 2.6087615
1.3385638 -0.11812679 2.6084442
1.3377911 -0.14801261 2.6082449
1.3374511 -0.17794549 2.6081698
1.3375866 -0.20796327 2.6082301
1.3382324 -0.23806214 2.6075966
1.3393853 -0.26750275 2.606986
1.341099 -0.29781014 2.6075768
1.3434521 -0.32874098 2.6068497
1.346198 -0.35787386 2.6069107
1.3495495 -0.38789001 2.6065102
1.3534646 -0.4184444 2.6063554
1.3577487 -0.44836685 2.6061797
1.360534 -0.46650982 2.6083522
1.369465 0.20070027 2.5899909
1.3676407 0.17898402 2.5825553
1.3647207 0.15120013 2.5782757
1.3610713 0.1214053 2.5782046
1.3576059 0.091704473 2.578176
1.3543353 0.062182706 2.5783074
1.3512822 0.031664453 2.5778587
1.3483996 0.0016717999 2.5786018
1.3460459 -0.027505063 2.5779994
1.3439144 -0.057647329 2.5776222
1.342014 -0.08764524 2.5785975
1.3406329 -0.11775804 2.5782013
1.3396273 -0.14798047 2.5783634
1.3391358 -0.17793533 2.5778604
1.3390502 -0.20778938 2.5782762
1.3395319 -0.23788136 2.5778987
1.3405896 -0.26798952 2.5768259
1.3420981 -0.2974577 2.5770676
1.3441746 -0.32709032 2.577292
1.3469284 -0.35750058 2.5765836
1.3501825 -0.3877885 2.5767059
1.3539319 -0.41780391 2.5764925
1.3579931 -0.4469749 2.5769782
1.3603194 -0.46447319 2.5883005
1.367135 0.14562832 2.5580816
1.3651515 0.12051555 2.5517673
1.3624783 0.092050999 2.5477543
1.3589929 0.062643863 2.5483499
1.3558186 0.032100681 2.5477242
1.3527578 0.0019533937 2.5481873
1.3501117 -0.027519256 2.5481999
1.3478191 -0.057641629 2.5476587
1.3457812 -0.087901682 2.5476987
1.344138 -0.11753181 2.5479488
1.3428645 -0.147719 2.5482976
1.3421311 -0.17776142 2.5481241
1.3418609 -0.20786804 2.5480609
1.3420715 -0.23765711 2.5483437
1.3430564 -0.26786521 2.5464773
1.344381 -0.29812068 2.5468483
1.3462774 -0.3279871 2.5472965
1.3489012 -0.35831273 2.5464277
1.3519117 -0.38803756 2.5469415
1.355597 -0.41816479 2.5458694
1.3583001 -0.44045568 2.5498903
1.3655432 0.086664282 2.5288119
1.3635423 0.060341626 2.5238991
1.3614165 0.031020237 2.5187726
1.3586097 0.0016914126 2.5175731
1.355731 -0.027365431 2.5179582
1.3531073 -0.05783603 2.5179191
1.3509393 -0.08802963 2.5174489
1.3490615 -0.11789822 2.5175567
1.34764 -0.14782353 2.5173881
1.3466107 -0.17762376 2.5175073
1.346107 -0.2076645 2.5173297
1.3461211 -0.237846 2.5171425
1.3467343 -0.26753387 2.5164955
1.3477844 -0.29743609 2.51688
1.3494745 -0.32760969 2.5170836
1.3518454 -0.35759091 2.5164094
1.3547399 -0.38782102 2.51632
1.3573221 -0.41432992 2.5199666
1.3589141 -0.43461704 2.5300691
1.3642701 0.02057497 2.5014122
1.3629118 -0.00077101728 2.4976916
1.3610727 -0.029206872 2.4935808
1.3592832 -0.058259908 2.4900012
1.3574573 -0.087904379 2.4874516
1.3553698 -0.11783699 2.4872661
1.3536781 -0.14757521 2.4871566
1.3525195 -0.17783427 2.4864619
1.3516891 -0.20777534 2.4865115
1.351366 -0.23751989 2.4866285
1.3516374 -0.26764745 2.4864945
1.3524624 -0.2977818 2.4865623
1.3538541 -0.32780209 2.4868572
1.3557143 -0.35703045 2.4875965
1.3572248 -0.38413808 2.4932218
1.3583052 -0.40358981 2.4999056
1.3612937 -0.092984803 2.4702218
1.3600395 -0.11976909 2.4672999
1.3588775 -0.14852034 2.4646468
1.3579347 -0.17778024 2.4624798
1.3571807 -0.20769943 2.4611819
1.3567344 -0.23791648 2.460645
1.3566099 -0.26765171 2.4611409
1.3567764 -0.29688996 2.4630315
1.3572819 -0.32536775 2.4662204
1.3578925 -0.34772754 2.4698458
1.4126371 0.46774039 2.8666208
1.4112909 0.44938949 2.8734934
1.3828267 0.18079899 2.8675659
1.3804357 0.1510478 2.8673794
1.3786516 0.12627292 2.8675497
1.3727186 -0.27854544 2.8667917
1.3736918 -0.29949 2.8657601
1.3757485 -0.32900855 2.8660374
1.3783222 -0.35986587 2.8666794
1.3975234 -0.53232503 2.8677511
1.4113427 0.47514811 2.8458781
1.4084047 0.45008275 2.8478494
1.4047357 0.4201422 2.8480346
1.3877025 0.27081618 2.8477352
1.3847156 0.2406664 2.8481092
1.3818381 0.21049395 2.8481462
1.3799772 0.18246017 2.8518052
1.3789468 0.15459445 2.8585484
1.3780888 0.13487841 2.8618326
1.3722816 -0.30589521 2.8579021
1.3726974 -0.33189648 2.8514276
1.3738532 -0.35950932 2.846163
1.3766239 -0.38908601 2.8461294
1.3796129 -0.41915414 2.8453586
1.3867441 -0.47947246 2.845237
1.3906058 -0.5095315 2.8448596
1.3945431 -0.5390749 2.8440924
1.3963497 -0.56003338 2.8363125
1.4112484 0.4983674 2.8105874
1.4093695 0.48008069 2.8178651
1.4054804 0.45055845 2.8183804
1.4014826 0.42034504 2.8180437
1.3976588 0.390551 2.8181524
1.3939542 0.36077535 2.8184562
1.3902484 0.33075073 2.8181114
1.386688 0.30064237 2.8180788
1.3832495 0.27027011 2.818157
1.3802381 0.24120012 2.8191445
1.378772 0.2155509 2.8269451
1.3703829 -0.36627111 2.8263078
1.3713113 -0.39097747 2.8180876
1.3740158 -0.41924578 2.8156207
1.3776578 -0.44924438 2.815496
1.3815999 -0.47939995 2.8153586
1.3857607 -0.50951827 2.815038
1.3901364 -0.53953922 2.8147466
1.39413 -0.56710899 2.8130317
1.3954173 -0.58618605 2.7996449
1.410035 0.50131428 2.7870023
1.4071548 0.4804287 2.7881861
1.4029975 0.45073837 2.7882497
1.3989011 0.42104024 2.7883334
1.39476 0.39059633 2.7881832
1.390801 0.36059621 2.7883923
1.3869683 0.3309499 2.788286
1.3831967 0.30071795 2.7883611
1.3796881 0.27144563 2.7884881
1.3780997 0.25014067 2.7960997
1.3686225 -0.39975089 2.7979953
1.3695894 -0.4212831 2.7882595
1.372733 -0.44899035 2.785531
1.3768777 -0.47902969 2.7853303
1.3813186 -0.5091598 2.7852066
1.3859643 -0.53903353 2.7851603
1.3908082 -0.56918097 2.7847333
1.3938278 -0.59002596 2.7807069
1.408812 0.50349653 2.7580466
1.4053693 0.47997889 2.7583303
1.4010553 0.45040253 2.7582192
1.3968287 0.42098564 2.7582583
1.3925612 0.39079201 2.7582593
1.3883835 0.36054546 2.7583313
1.3843414 0.33050099 2.7584462
1.3804725 0.30093154 2.7584491
1.3776958 0.27791771 2.7601979
1.3671869 -0.42978793 2.7656474
1.3687376 -0.44986728 2.7569475
1.3727677 -0.4788197 2.7555952
1.377364 -0.50878227 2.7552366
1.3823169 -0.53923929 2.7550535
1.3873916 -0.56940901 2.7543976
1.3918898 -0.5953142 2.7537339
1.4078324 0.50366074 2.7285824
1.4042714 0.48006755 2.7283659
1.3998266 0.45037696 2.7282991
1.3954637 0.42086759 2.7283156
1.3911636 0.39129135 2.7284908
1.3868514 0.36122373 2.7280662
1.3826071 0.33065879 2.7285233
1.3785795 0.3009471 2.7285628
1.3762577 0.28295442 2.7297685
1.3662359 -0.45682523 2.7285113
1.3692887 -0.47889844 2.7257025
1.374109 -0.50912505 2.7253621
1.3790987 -0.53859717 2.7253082
1.384382 -0.56869626 2.7248154
1.3898093 -0.59856969 2.7242031
1.392235 -0.61484402 2.7163224
1.407147 0.50174242 2.6994998
1.4038931 0.48046175 2.6983361
1.3993673 0.45068347 2.6983368
1.3949139 0.42108095 2.6982923
1.3904086 0.39072534 2.6981614
1.3860459 0.36079496 2.6985371
1.3817792 0.33090141 2.6984956
1.377622 0.30106169 2.6984382
1.3751763 0.28329855 2.6972013
1.3646315 -0.46219003 2.705173
1.3665427 -0.47930038 2.6960406
1.3713976 -0.50894934 2.6955464
1.3766716 -0.53934151 2.695188
1.3820555 -0.56896716 2.6949244
1.3877136 -0.59901798 2.6945872
1.3910893 -0.61736256 2.6918921
1.4068178 0.49871847 2.6759264
1.4042258 0.48074299 2.6685894
1.3997257 0.45116779 2.6682444
1.3952098 0.42129257 2.6681278
1.3907084 0.39125663 2.6684535
1.3862995 0.36133504 2.6685033
1.3819238 0.33106321 2.6683338
1.3776904 0.30120602 2.6684127
1.3746901 0.27931339 2.6663921
1.3648049 -0.48154736 2.6663125
1.3692755 -0.50835198 2.6655335
1.3746575 -0.53873944 2.6652684
1.3801802 -0.56853056 2.6649389
1.3859779 -0.59862101 2.6647367
1.3898442 -0.618469 2.6636009
1.4044158 0.47552314 2.6406581
1.4008375 0.45100108 2.6381857
1.3963323 0.4211238 2.6385355
1.3918848 0.39116251 2.6383114
1.3874811 0.3611632 2.6380985
1.3831414 0.33145398 2.6385884
1.3788737 0.30135143 2.638211
1.3748128 0.27210969 2.6377687
1.372678 0.25269982 2.6287832
1.3636047 -0.48252222 2.6356337
1.3679487 -0.50809431 2.6355641
1.3733852 -0.53848177 2.6352458
1.3789732 -0.56825948 2.6349359
1.3848622 -0.59844702 2.6347311
1.3888363 -0.61837351 2.6344225
1.4045086 0.46834618 2.6201401
1.4024335 0.44924527 2.6105616
1.3985465 0.42127228 2.6079314
1.3941069 0.39117634 2.6082873
1.3897905 0.36150405 2.6083887
1.3854746 0.3313047 2.6081228
1.3812245 0.30161577 2.6084676
1.3770305 0.27132258 2.6080935
1.3732777 0.24276644 2.6063588
1.371236 0.22054 2.5971644
1.3628623 -0.4809418 2.6051068
1.3674513 -0.50805241 2.605541
1.3729072 -0.53851163 2.6052125
1.3785226 -0.56835252 2.60495
1.3844336 -0.59853482 2.6046741
1.3882042 -0.61730927 2.6065998
1.4030352 0.43985164 2.589391
1.4010049 0.41891333 2.5811849
1.3975216 0.3914471 2.5779552
1.3932288 0.3613399 2.5782001
1.3890536 0.33156282 2.5781326
1.3848252 0.3013683 2.5781767
1.3807689 0.27185273 2.577975
1.3765751 0.24178118 2.5785217
1.37287 0.21251589 2.5768723
1.3704115 0.18588771 2.5696278
1.3687369 0.16568613 2.5636423
1.3603305 -0.46064004 2.5675135
1.3629504 -0.47891873 2.5756857
1.3679023 -0.50861764 2.575537
1.3731966 -0.53845596 2.5754802
1.3787678 -0.56821311 2.5746546
1.3845794 -0.59814018 2.5749106
1.3878224 -0.6150046 2.5812514
1.4020003 0.40736499 2.5614128
1.4002292 0.38785946 2.555546
1.3976549 0.36071637 2.5489225
1.3938967 0.33167738 2.5478697
1.3897662 0.30158693 2.5481305
1.3857346 0.27163497 2.5479329
1.3816589 0.24155858 2.5479841
1.3776819 0.21180104 2.5479052
1.3736525 0.18205431 2.548368
1.3706788 0.15388046 2.5447295
1.3684636 0.12649679 2.5382223
1.3605806 -0.4534432 2.5432785
1.3640655 -0.47759852 2.5458539
1.3690257 -0.50805926 2.5454693
1.3742765 -0.53821176 2.5450587
1.3797822 -0.56832278 2.5451851
1.3848392 -0.59488595 2.5453925
1.3997644 0.35112393 2.5304875
1.3979442 0.32877156 2.5251374
1.3955433 0.30064192 2.5193741
1.3921375 0.27168742 2.5176113
1.3880908 0.24175894 2.5180032
1.3841836 0.21167134 2.5176358
1.3801155 0.18162942 2.5180147
1.3763379 0.15161657 2.5173888
1.3723586 0.12208031 2.518194
1.369382 0.09311901 2.5154431
1.3673191 0.064194284 2.5093842
1.3656005 0.040648453 2.5051587
1.3596255 -0.42468095 2.5098925
1.3620677 -0.44799584 2.5158572
1.3664622 -0.4784202 2.5155401
1.371102 -0.50805587 2.5155063
1.3761839 -0.53816557 2.5151384
1.3815877 -0.56841749 2.5147026
1.3852007 -0.58922738 2.5180418
1.3982033 0.28811622 2.501276
1.3965681 0.26793119 2.4975648
1.3943251 0.24059288 2.4927483
1.3919245 0.21132502 2.4876852
1.3879689 0.18183701 2.4879906
1.3841879 0.15199926 2.4874825
1.3802087 0.12196402 2.4877336
1.3763657 0.091666721 2.4876456
1.3727411 0.061438229 2.487252
1.3691905 0.032145265 2.4875629
1.3670106 0.0030481885 2.4834423
1.3651886 -0.026048087 2.4787357
1.3636162 -0.051571842 2.4752061
1.3585905 -0.36730832 2.4741616
1.3597301 -0.39034477 2.4800498
1.3617127 -0.4178291 2.4863787
1.3654871 -0.44813386 2.4855523
1.3695045 -0.47776416 2.4855535
1.3740777 -0.50831455 2.4852774
1.3788558 -0.53808451 2.4852262
1.3833553 -0.56538403 2.486728
1.3954929 0.20063917 2.4705756
1.3937871 0.1796696 2.4672
1.3916328 0.15043063 2.4618304
1.3890295 0.12135515 2.4580445
1.3853512 0.092228167 2.4576759
1.3817602 0.062170625 2.4568825
1.377858 0.032115348 2.4574959
1.3743197 0.002056038 2.4574773
1.371178 -0.027786523 2.4569349
1.3680876 -0.057614882 2.4571002
1.3656402 -0.086728692 2.4562035
1.3641633 -0.11708282 2.4525325
1.3628033 -0.14748786 2.4496992
1.3617126 -0.17731351 2.4474463
1.3608356 -0.20706853 2.4460564
1.3601754 -0.23714505 2.4457183
1.3598955 -0.26801291 2.446136
1.3599253 -0.29887685 2.4480557
1.3602861 -0.32900214 2.4516287
1.3611224 -0.35831591 2.4561193
1.3634607 -0.38801026 2.4558308
1.3662962 -0.41783077 2.4558146
1.3696375 -0.44762883 2.4556456
1.3735225 -0.47814065 2.4553988
1.3776953 -0.50775069 2.4550648
1.3819544 -0.53707463 2.4564009
1.3842099 -0.55721289 2.4645598
1.3933256 0.11152325 2.4409165
1.3917142 0.089661628 2.4371789
1.389545 0.061238915 2.4326818
1.3871397 0.031387985 2.4285808
1.3839942 0.0021425458 2.427187
1.380613 -0.027938776 2.4266765
1.3773619 -0.057822 2.4265301
1.3740233 -0.087712653 2.4275436
1.371465 -0.11747032 2.4271448
1.3691825 -0.14744927 2.426985
1.3673846 -0.17766434 2.4265244
1.366011 -0.20778193 2.4261963
1.3651061 -0.23778418 2.4260144
1.364718 -0.26776642 2.4259455
1.3648775 -0.29771772 2.4260221
1.3656443 -0.32768324 2.4261158
1.3670089 -0.3577036 2.4262586
1.3690152 -0.3875511 2.4260364
1.371573 -0.41780832 2.4259334
1.3747288 -0.44780225 2.4251714
1.3781501 -0.47755185 2.4251864
1.3816105 -0.50639641 2.4267414
1.3835447 -0.52899897 2.434984
1.3915811 0.019241177 2.4113021
1.3899992 -0.0013415669 2.4084218
1.3880185 -0.029458255 2.4042773
1.3859487 -0.059334967 2.4002404
1.3837284 -0.088680066 2.3974063
1.3810172 -0.1182475 2.3967032
1.3785344 -0.1480422 2.3962598
1.3763995 -0.17796266 2.3959129
1.3744872 -0.20772198 2.3963201
1.3731495 -0.2378217 2.3964179
1.3724296 -0.26777503 2.3962824
1.3722433 -0.29772776 2.396312
1.3726741 -0.3276664 2.3963072
1.3738716 -0.35789341 2.3956563
1.3755269 -0.38770741 2.3954117
1.3776057 -0.41775709 2.3957777
1.3803452 -0.44760126 2.3952677
1.3821869 -0.47532818 2.4006715
1.3834943 -0.49690878 2.4074495
1.3886368 -0.097867876 2.3802319
1.387287 -0.11955079 2.3776495
1.3856883 -0.14843012 2.3742836
1.3842003 -0.17803261 2.3713241
1.3827412 -0.20810293 2.3693383
1.3816509 -0.23780994 2.3676434
1.3809288 -0.26764983 2.3663356
1.3804086 -0.29762998 2.3661976
1.3804401 -0.32754493 2.3662462
1.3808873 -0.35709244 2.3669403
1.3815672 -0.38696882 2.3691618
1.382375 -0.41626853 2.3733187
1.3833064 -0.44019136 2.3774452
1.4254448 -0.71332085 2.8916428
1.4399703 0.69006199 2.8779926
1.4365852 0.65992957 2.8780267
1.4152474 0.48087037 2.8757744
1.4033231 -0.56999153 2.8725271
1.4160031 -0.6599803 2.8733172
1.4203664 -0.69030136 2.8736317
1.4241282 -0.7180509 2.8716643
1.4421175 0.71980339 2.8480921
1.4386822 0.69045842 2.8480473
1.4349729 0.65975952 2.848094
1.4312092 0.62943292 2.8482299
1.4274616 0.60000229 2.8478594
1.4199126 0.54087633 2.8480475
1.4161103 0.51092058 2.8482931
1.4135679 0.48830488 2.8515434
1.3983165 -0.5525198 2.8561292
1.3995712 -0.57194531 2.8461776
1.4033746 -0.5996666 2.844162
1.4078922 -0.62976408 2.8438387
1.4125332 -0.65991014 2.8438549
1.4171029 -0.68970895 2.8434172
1.4217016 -0.71976221 2.8428695
1.4242513 -0.73805577 2.8397074
1.4411989 0.71990293 2.8180881
1.4374864 0.69000179 2.81809
1.4335759 0.65952426 2.8181019
1.4297048 0.63022625 2.8180344
1.425772 0.60091323 2.8181043
1.4216563 0.57054996 2.8181462
1.4175454 0.54031497 2.8181827
1.413725 0.51165801 2.8190689
1.4123111 0.494124 2.8305106
1.3972509 -0.57960105 2.8217955
1.3994533 -0.59957081 2.81442
1.4042594 -0.62956166 2.8138688
1.4092 -0.65956938 2.8137288
1.4142749 -0.69009006 2.8137195
1.4192343 -0.72030389 2.8131022
1.4226478 -0.74166363 2.811754
1.4405096 0.72036231 2.7880177
1.4366484 0.69062322 2.7880948
1.4324905 0.65966219 2.78811
1.4283662 0.62983567 2.788106
1.4242213 0.6003741 2.7881749
1.4199212 0.57014281 2.7881465
1.4156266 0.54004526 2.7881756
1.4122794 0.51620442 2.7890365
1.3967777 -0.60400027 2.7856705
1.4010507 -0.62959576 2.7843974
1.4062624 -0.65961856 2.7839284
1.4114788 -0.68939626 2.7834482
1.4167449 -0.7193538 2.7832391
1.4210074 -0.74410903 2.782362
1.4399511 0.72023034 2.7580416
1.4359645 0.69050628 2.7582607
1.4317251 0.66000503 2.75805
1.427489 0.63036847 2.7580445
1.4231669 0.6006754 2.7581639
1.4186568 0.57005048 2.758163
1.4141779 0.53974497 2.7582788
1.4110508 0.51847631 2.7587252
1.394823 -0.60963523 2.7575574
1.3980234 -0.6289978 2.7542052
1.4035124 -0.65905309 2.7536583
1.4091461 -0.68943685 2.753556
1.4146773 -0.7193203 2.7534273
1.4195043 -0.74584472 2.7528305
1.4419699 0.73750055 2.729866
1.4396329 0.72023875 2.7280259
1.4354906 0.689991 2.728153
1.4312552 0.66012013 2.7281735
1.4269352 0.63052845 2.7281318
1.4225432 0.60101336 2.7281306
1.4179566 0.57057256 2.7281163
1.413347 0.54012209 2.72822
1.4100696 0.51851976 2.7281122
1.3933907 -0.61229151 2.7367792
1.3957473 -0.62991172 2.7246544
1.4014283 -0.65980661 2.7239916
1.4072013 -0.68978882 2.7236037
1.4130504 -0.72015029 2.7233512
1.418313 -0.74786824 2.7227368
1.4418153 0.73693174 2.7122362
1.4394082 0.71916246 2.6989462
1.4354967 0.69079107 2.6978757
1.431191 0.66063911 2.6981981
1.4267217 0.63027436 2.6980178
1.4222867 0.60075551 2.6984432
1.4177457 0.57090062 2.6981225
1.4130948 0.54053253 2.6980493
1.4093987 0.51644367 2.6976449
1.394122 -0.63194317 2.6947455
1.399505 -0.65934455 2.6940689
1.4054779 -0.68938619 2.693615
1.4114844 -0.71955425 2.693363
1.4170575 -0.74787056 2.6930645
1.4390346 0.71512401 2.669816
1.4356672 0.69048905 2.6680284
1.4314315 0.66061103 2.6678979
1.4270364 0.63063282 2.6682839
1.4225423 0.60054487 2.6679511
1.4180659 0.57107043 2.6683457
1.4135072 0.541206 2.6680539
1.4091141 0.51249433 2.667551
1.4066747 0.49466103 2.6559536
1.3928045 -0.63302809 2.664562
1.3979998 -0.65879011 2.6640034
1.4041663 -0.68903863 2.6636629
1.4103974 -0.71959466 2.6633887
1.4161592 -0.74816316 2.6630702
1.438702 0.70966899 2.6432252
1.4362093 0.69042486 2.6384859
1.4321115 0.66076505 2.6376779
1.4278033 0.63083112 2.6382678
1.4234215 0.60097641 2.6382542
1.4189019 0.57053465 2.6378593
1.4144096 0.5407058 2.638
1.4099282 0.51114982 2.6383047
1.4066941 0.48858872 2.6346886
1.391848 -0.63320011 2.6343803
1.3971008 -0.6588155 2.634053
1.4033284 -0.68890947 2.6336629
1.409639 -0.71937424 2.6333399
1.4152299 -0.74661845 2.6333134
1.4365457 0.68637627 2.6102438
1.4332125 0.6609028 2.608041
1.4290611 0.63084811 2.608042
1.424813 0.60077631 2.6079125
1.4205291 0.57098418 2.6078691
1.4161574 0.54126811 2.6084795
1.4117701 0.51118529 2.6080818
1.4074737 0.48169789 2.6074712
1.4050318 0.46038806 2.5992756
1.3911942 -0.63202506 2.6037741
1.3967732 -0.65906298 2.6040547
1.4030676 -0.68927938 2.6037314
1.4093306 -0.7193107 2.6035943
1.4146229 -0.74491656 2.6033213
1.4365994 0.67959273 2.5883069
1.4344684 0.65924275 2.5795913
1.4308845 0.63080794 2.5775735
1.4268626 0.60105789 2.5781491
1.4227979 0.57113534 2.5779274
1.4186422 0.54125339 2.5781357
1.4144174 0.51083189 2.5778294
1.4102226 0.48128173 2.5781245
1.4061753 0.45183709 2.5771112
1.4038292 0.42846683 2.5693891
1.3875921 -0.61193657 2.5617652
1.3908665 -0.62938637 2.5738916
1.3969593 -0.65909755 2.5739489
1.403173 -0.68902439 2.5738063
1.4093518 -0.71870196 2.5730801
1.4141427 -0.74197543 2.5741644
1.4350265 0.65181261 2.5571594
1.4329753 0.62962407 2.5490737
1.4295326 0.60108721 2.5480287
1.42575 0.57109803 2.5479655
1.4219321 0.54102242 2.5475492
1.417973 0.51119286 2.5480702
1.4140332 0.48102731 2.5477629
1.4100611 0.45146883 2.5479765
1.4060079 0.42127544 2.5479825
1.4033287 0.39434031 2.5422764
1.4013523 0.37110558 2.5359602
1.3877918 -0.60908467 2.5408936
1.3914685 -0.62827474 2.5442235
1.3975292 -0.65822655 2.5439568
1.4037267 -0.68844962 2.5436413
1.40999 -0.71892881 2.5433955
1.4140884 -0.73929566 2.5457902
1.4337705 0.62072319 2.5293961
1.4319985 0.59848231 2.5224538
1.429409 0.5711084 2.5180547
1.4260212 0.54118228 2.5173993
1.4224473 0.51156354 2.5178154
1.4188023 0.48136982 2.5177886
1.4151191 0.45125788 2.5177407
1.4114423 0.4216865 2.5177171
1.4075745 0.39118972 2.517839
1.4040695 0.36197898 2.5168045
1.4015934 0.33382621 2.5116136
1.399786 0.30900252 2.5057282
1.3881241 -0.60296917 2.5131977
1.3929517 -0.62830162 2.5140374
1.3989403 -0.65864259 2.5138814
1.4049559 -0.68866813 2.5136528
1.4108531 -0.71800297 2.5134757
1.4140197 -0.7354033 2.5214069
1.4315106 0.56507087 2.4985094
1.4297758 0.53954834 2.4924924
1.4275802 0.51055735 2.4876351
1.4244425 0.48140693 2.4876926
1.4211385 0.45121953 2.4876263
1.4177632 0.42104366 2.4875293
1.4144139 0.39136672 2.4872551
1.4108059 0.36146623 2.4875906
1.4071345 0.33158505 2.4878821
1.403695 0.30176297 2.4870093
1.4009585 0.27291206 2.4837177
1.3989042 0.2439678 2.4779391
1.3971318 0.22104405 2.4739199
1.3863193 -0.57733923 2.4773455
1.3894131 -0.598333 2.4847631
1.3950748 -0.6284312 2.4837556
1.4008154 -0.65861142 2.4837356
1.4065937 -0.68854421 2.4838564
1.4114523 -0.71375728 2.484688
1.4301006 0.50158685 2.4699948
1.4285746 0.47846508 2.4665215
1.4267547 0.45037517 2.4623718
1.4247949 0.42095932 2.4583912
1.4221272 0.39159873 2.4570673
1.4188414 0.36155212 2.4574199
1.4156357 0.33149424 2.4570363
1.4121521 0.30148214 2.4571843
1.4084742 0.2715441 2.4575908
1.4049488 0.24168871 2.4571283
1.4014233 0.21224409 2.4564772
1.39887 0.1830911 2.4526465
1.3968261 0.15437128 2.4473677
1.3951746 0.13202935 2.4434667
1.3853184 -0.54900503 2.4443073
1.3875687 -0.56944942 2.4531453
1.3923186 -0.59833354 2.4544761
1.397682 -0.62828225 2.4537408
1.4031264 -0.65828103 2.4537387
1.4086519 -0.68818021 2.4538016
1.4119089 -0.7078054 2.4593115
1.4281487 0.41017437 2.4416218
1.4268463 0.38830358 2.4388084
1.4251336 0.35999221 2.4351904
1.4233323 0.3306177 2.4313898
1.4211403 0.30101609 2.4285245
1.4184917 0.27176225 2.4267511
1.4148854 0.24164084 2.4270182
1.4111968 0.2114462 2.4270179
1.40737 0.18163508 2.4271262
1.4037493 0.15191279 2.426384
1.3996384 0.12207761 2.4268079
1.3972588 0.092595175 2.4224112
1.3950843 0.063549191 2.417666
1.3930241 0.040000375 2.4147656
1.3849069 -0.5177449 2.4152651
1.3869088 -0.53965563 2.4225578
1.3909173 -0.56810033 2.4245198
1.3957483 -0.59821713 2.4242351
1.400805 -0.62825435 2.4237096
1.4059311 -0.658252 2.4238524
1.4101515 -0.68339229 2.4258418
1.4241767 0.2659407 2.408427
1.4221078 0.24012393 2.4060826
1.4201449 0.21082367 2.4019926
1.4179721 0.1810241 2.3979311
1.4146509 0.15153113 2.3966413
1.4108098 0.12186626 2.3963714
1.4066869 0.092032515 2.3966148
1.402649 0.061646089 2.3964136
1.398476 0.032040816 2.3969955
1.3958957 0.0030708082 2.3936875
1.3936474 -0.02660713 2.3895056
1.3913515 -0.055874143 2.3859894
1.3897896 -0.078338042 2.3830655
1.3841497 -0.45921028 2.3816512
1.3852485 -0.48119494 2.3876984
1.3872788 -0.50867367 2.3941181
1.3909999 -0.53785741 2.3942773
1.3951536 -0.56807745 2.3945355
1.3996406 -0.59812891 2.3941534
1.4043727 -0.62811905 2.3934269
1.4086392 -0.65626788 2.3954921
1.4109769 -0.67584789 2.4036701
1.4212412 0.14759296 2.3782623
1.4191011 0.11997545 2.3743653
1.416755 0.090721473 2.3702455
1.4139966 0.061422143 2.3670201
1.4102308 0.032328743 2.3663623
1.4061683 0.0023084194 2.3662648
1.4021273 -0.028512698 2.366143
1.398192 -0.058168981 2.3666031
1.3951322 -0.087300353 2.3654394
1.3926871 -0.11659562 2.3631513
1.3907621 -0.1468381 2.3598857
1.3891038 -0.17689773 2.3568368
1.3876988 -0.2066516 2.3541946
1.3865244 -0.23592712 2.3522289
1.3845838 -0.34084439 2.3513188
1.3847989 -0.36124614 2.352201
1.3851806 -0.38968503 2.354846
1.385909 -0.41900054 2.3586831
1.3868769 -0.44865319 2.3642445
1.3893509 -0.47802892 2.365114
1.3926004 -0.50770009 2.3642299
1.3961025 -0.53800458 2.3642035
1.39984 -0.5680607 2.3644793
1.4038992 -0.59792328 2.3642464
1.4079564 -0.62676197 2.3645387
1.4099663 -0.64790946 2.3731024
1.4197098 0.050219808 2.3488743
1.4176897 0.028762642 2.3463879
1.4152799 0.00077330135 2.3426132
1.4129145 -0.029085085 2.338192
1.4100504 -0.058064226 2.3355572
1.4062514 -0.08796227 2.3354166
1.4023757 -0.1183108 2.3360195
1.399207 -0.14793707 2.3357794
1.3961829 -0.17759807 2.336112
1.3936549 -0.20771827 2.3360984
1.3916854 -0.23771568 2.3358603
1.3901381 -0.26768726 2.3359323
1.3892435 -0.29767856 2.3357301
1.3889328 -0.327737 2.3355575
1.3892007 -0.3577241 2.3354394
1.3899816 -0.387725 2.3355663
1.3913777 -0.41772187 2.3354139
1.3931822 -0.44778195 2.3356562
1.3957909 -0.47780514 2.3342607
1.3985811 -0.50803065 2.3338771
1.4015926 -0.53800297 2.3340416
1.4049163 -0.56788355 2.3341784
1.4078867 -0.59592009 2.3367972
1.4096743 -0.61802793 2.3437185
1.4163225 -0.063032091 2.3178799
1.4142202 -0.089651331 2.3141701
1.4122095 -0.11886772 2.3097134
1.4100538 -0.1485974 2.3060069
1.4069976 -0.17795669 2.3056214
1.4039447 -0.20785438 2.3061285
1.4016305 -0.23780197 2.3058183
1.3996556 -0.26776245 2.3060098
1.3983839 -0.29778382 2.3057466
1.3976982 -0.3278535 2.3054764
1.3974957 -0.35776296 2.3055623
1.3979458 -0.38779783 2.3053732
1.3988633 -0.41785407 2.305443
1.4003141 -0.44771731 2.3053303
1.4023554 -0.47756705 2.3045282
1.4048091 -0.50786871 2.3037276
1.4070232 -0.53671974 2.3052197
1.408525 -0.56450325 2.3117776
1.4097353 -0.58479297 2.3173752
1.415109 -0.16132221 2.2884691
1.4133666 -0.18223719 2.2868443
1.4115617 -0.20912927 2.2841864
1.4100995 -0.23846121 2.280828
1.4086822 -0.26822853 2.278439
1.4076672 -0.29819077 2.2762589
1.4068679 -0.32774663 2.2751224
1.4062753 -0.35771066 2.2750895
1.4062793 -0.38771406 2.2749324
1.4066362 -0.41750765 2.2754393
1.4070619 -0.44737414 2.2776716
1.4078038 -0.47689843 2.2806368
1.4087747 -0.50442016 2.28406
1.4096248 -0.5248875 2.2872138
1.4115291 -0.33767974 2.2587829
1.411075 -0.35799977 2.2587113
1.4108231 -0.38226804 2.2586291
1.4276873 -0.72947127 2.8925107
1.4306159 -0.75144005 2.8929963
1.4266921 -0.73145556 2.8789361
1.4287236 -0.75008053 2.8726664
1.4327871 -0.77989566 2.8724995
1.426742 -0.75252426 2.8433738
1.4307635 -0.78007096 2.8425879
1.4350166 -0.8097136 2.8426123
1.4251766 -0.75637984 2.8137212
1.4289241 -0.78044897 2.8127246
1.4335716 -0.8107807 2.8123212
1.4237089 -0.7591061 2.7843418
1.4270977 -0.77985078 2.7826951
1.4320923 -0.81049901 2.7822416
1.4223061 -0.76079202 2.7547014
1.4255075 -0.77952617 2.7526433
1.4307606 -0.81008112 2.7523916
1.4420929 0.73892164 2.7161622
1.4210317 -0.76180583 2.7249167
1.4241076 -0.77901238 2.7227745
1.4296186 -0.80973631 2.7225583
1.4419304 0.73772103 2.6982076
1.4413539 0.73337179 2.6911654
1.4198587 -0.76234204 2.6926379
1.4229978 -0.77882218 2.6928043
1.4287603 -0.80989593 2.6925263
1.4420033 0.73701173 2.6681502
1.4409343 0.7288419 2.6653953
1.418957 -0.76226699 2.6626058
1.4222038 -0.77889597 2.6627939
1.4280776 -0.80980605 2.6624296
1.4424962 0.7377823 2.6397803
1.4406319 0.72310019 2.6363916
1.4181458 -0.76110309 2.6319177
1.4216914 -0.7789405 2.6328008
1.4275061 -0.80902839 2.632551
1.4431908 0.73717839 2.606194
1.4410849 0.72092682 2.607964
1.4384944 0.6994223 2.60357
1.4175798 -0.75942552 2.6015036
1.421568 -0.77937484 2.602741
1.427429 -0.80949253 2.6025047
1.442144 0.72060871 2.5780373
1.438714 0.69172734 2.5768409
1.4367024 0.67179465 2.5687401
1.4173174 -0.75741798 2.5717862
1.4216228 -0.77903676 2.5728753
1.4274337 -0.80893689 2.5723763
1.4436066 0.72071815 2.5478027
1.4403285 0.69114012 2.5477006
1.4371716 0.66268247 2.5461445
1.4353007 0.64057165 2.537415
1.417008 -0.75333935 2.5423088
1.4220228 -0.77869534 2.5424283
1.427863 -0.80912882 2.5426397
1.4454215 0.72098643 2.517525
1.4424249 0.69093621 2.5179651
1.439353 0.66098398 2.5179403
1.4363747 0.63177973 2.5166056
1.4343792 0.60560578 2.5092769
1.4141463 -0.73214078 2.5021458
1.4171958 -0.74967015 2.5123372
1.4229126 -0.77921742 2.5128396
1.428497 -0.80882317 2.5121379
1.4449487 0.69102359 2.4880683
1.4423755 0.66109079 2.4875929
1.4396887 0.63114589 2.4871664
1.4367878 0.60112768 2.4875097
1.4343262 0.57264906 2.4853771
1.4326205 0.54385608 2.4785092
1.4313284 0.52161986 2.4736624
1.4143947 -0.72781783 2.4807441
1.4183221 -0.7488603 2.4827669
1.423924 -0.77856773 2.4825385
1.4478651 0.69102532 2.4575055
1.4458137 0.66114491 2.4571249
1.4436576 0.63139284 2.456852
1.441166 0.6010536 2.4578004
1.4387276 0.57125592 2.4579036
1.4362638 0.5412668 2.4574814
1.4339081 0.51184702 2.4563737
1.4322636 0.48254868 2.4518507
1.4307358 0.45398754 2.4473345
1.4291728 0.4296287 2.4446263
1.4124092 -0.70310777 2.4407532
1.4150038 -0.72142506 2.451432
1.4198776 -0.74851233 2.4532194
1.4253935 -0.77877319 2.4523394
1.4524393 0.72118092 2.4278572
1.4510037 0.69109631 2.4276736
1.4494964 0.66108334 2.4274287
1.4478815 0.63103259 2.4272475
1.4460541 0.60118878 2.4278138
1.4442422 0.57119662 2.4275274
1.4423223 0.54128742 2.4272726
1.4403019 0.5113396 2.4269593
1.4381593 0.48129717 2.4266376
1.4358047 0.45109877 2.4266078
1.433259 0.42170677 2.4269984
1.4314103 0.39209369 2.4244065
1.4298259 0.36230779 2.4206507
1.4282074 0.33293784 2.4169378
1.4267259 0.30679312 2.4135525
1.4130205 -0.69625956 2.4190645
1.4165164 -0.7181859 2.4231567
1.4218832 -0.74863601 2.4227459
1.4270147 -0.77852601 2.4226477
1.432066 -0.80873346 2.4219716
1.4552361 0.72111952 2.3977447
1.454398 0.69113135 2.397649
1.4534986 0.66119009 2.3975024
1.4525101 0.63122892 2.3973458
1.4514208 0.60124868 2.3971786
1.4502242 0.57131368 2.3969953
1.4489071 0.54136497 2.3967991
1.447464 0.51140767 2.3965807
1.4458767 0.48144427 2.3963628
1.4441462 0.45148322 2.3961053
1.4421464 0.42125753 2.3961256
1.4396126 0.39157167 2.3973789
1.4373068 0.36160776 2.3971574
1.4348488 0.33160725 2.3967774
1.4321375 0.30152762 2.3964818
1.4299622 0.27224195 2.3942943
1.42813 0.24239504 2.3904922
1.4260713 0.21356562 2.3871429
1.4241666 0.18799748 2.3840182
1.4118161 -0.66846317 2.3846004
1.4143554 -0.68919629 2.3924229
1.4191072 -0.71841329 2.3931143
1.4240921 -0.74850029 2.3926187
1.4289778 -0.7787981 2.3925364
1.43363 -0.80844265 2.3920784
1.4581453 0.73770481 2.369313
1.4582058 0.7212835 2.3674371
1.4578933 0.69156939 2.3682897
1.4574153 0.66147792 2.3696227
1.4569063 0.63132536 2.3702598
1.4563143 0.60165268 2.3706286
1.4555657 0.57126999 2.3710287
1.4549878 0.54102272 2.3700101
1.4541006 0.5111981 2.3697932
1.4532431 0.48090968 2.3688202
1.4522434 0.4508833 2.3678408
1.4511528 0.4209961 2.3666294
1.4493574 0.39116263 2.3670127
1.4474947 0.36125284 2.3668456
1.4454067 0.33129063 2.3665965
1.4430579 0.30134398 2.3663249
1.4404331 0.27142602 2.3660293
1.4375309 0.24149273 2.3656971
1.4341416 0.21133512 2.3658082
1.4303504 0.18183038 2.366441
1.4274708 0.15233669 2.3642526
1.4253784 0.12301034 2.3597834
1.4230838 0.094019659 2.3556545
1.4212394 0.07032039 2.3520639
1.4111001 -0.6376099 2.3527374
1.4131688 -0.65983582 2.3618951
1.4172634 -0.68809676 2.3632529
1.4219619 -0.7185536 2.3628271
1.4265351 -0.74836344 2.3624995
1.431036 -0.77836162 2.3622594
1.4353642 -0.80838972 2.3627057
1.4376559 -0.82771146 2.3711717
1.4597718 0.73758912 2.3509779
1.4597881 0.72663671 2.3514149
1.4546875 0.38826877 2.350502
1.4536463 0.36036789 2.3490095
1.4524505 0.33091429 2.3470888
1.4510672 0.3009128 2.3448985
1.4495286 0.27077681 2.3423567
1.4478077 0.24080469 2.3395739
1.4458778 0.21104015 2.3366277
1.4426392 0.18129416 2.3361368
1.4388654 0.15153676 2.3362706
1.4349933 0.1214736 2.3360071
1.4309697 0.091489829 2.3357372
1.4271333 0.062079594 2.3349528
1.4244106 0.032672495 2.3313365
1.421586 0.0029838372 2.3278193
1.4194672 -0.023211343 2.323853
1.4110022 -0.60527855 2.3243995
1.4128064 -0.62918234 2.3325138
1.4166236 -0.65813738 2.3328187
1.420738 -0.68818909 2.3329456
1.4249283 -0.71814185 2.3328445
1.4291903 -0.74835813 2.3323691
1.4332895 -0.77838433 2.3325551
1.4361818 -0.80189204 2.3363204
1.4512069 0.19860373 2.3204093
1.4497033 0.17828274 2.3183489
1.4477257 0.15021969 2.3148093
1.445489 0.1210007 2.3110099
1.4432006 0.091208212 2.3066959
1.4397869 0.061971243 2.3048434
1.4349529 0.03139763 2.3056505
1.4303753 0.0014859601 2.3060367
1.426201 -0.027776655 2.3057683
1.4228785 -0.057056446 2.3035998
1.4204628 -0.086955853 2.2992191
1.4182144 -0.11584397 2.2951157
1.4163113 -0.14096008 2.2917657
1.4104688 -0.54520541 2.2915242
1.4116119 -0.57019365 2.2980537
1.4136049 -0.59813643 2.3034222
1.4169487 -0.62802225 2.303735
1.4206382 -0.65799022 2.302932
1.4243625 -0.68805307 2.3027768
1.4281255 -0.71814734 2.3029146
1.431993 -0.74856102 2.3025341
1.435095 -0.77514726 2.3051002
1.4366822 -0.794182 2.3150158
1.4466265 0.055696681 2.2866576
1.4442031 0.029811494 2.2832625
1.441685 0.00061623333 2.2787473
1.4388258 -0.028185647 2.2751024
1.4344177 -0.058072824 2.2748764
1.4302151 -0.088143669 2.2743742
1.4255804 -0.11806552 2.2754948
1.4219316 -0.14789751 2.2747908
1.4191161 -0.17721833 2.2727928
1.4172907 -0.20694701 2.2688141
1.4154261 -0.23672318 2.2658944
1.4139643 -0.26586232 2.2631302
1.4127327 -0.29307544 2.2613368
1.4106805 -0.42507073 2.2606411
1.4109569 -0.4503248 2.2624545
1.4114587 -0.47941592 2.2655616
1.4121604 -0.50899374 2.2700155
1.4134871 -0.53812349 2.2735503
1.4159244 -0.5680337 2.2736626
1.4186592 -0.59796709 2.2736328
1.4216454 -0.62808937 2.2735186
1.4248939 -0.65835005 2.2729015
1.4281645 -0.68806052 2.2725394
1.4315087 -0.71811867 2.2724514
1.4343117 -0.74524266 2.2748034
1.4358507 -0.76575059 2.2831838
1.445038 -0.03682933 2.2569778
1.4429595 -0.059913214 2.2533545
1.4402593 -0.089319512 2.2489593
1.4373735 -0.1186948 2.2452717
1.4332998 -0.14807828 2.2450738
1.4295033 -0.17797726 2.2446988
1.4258633 -0.20802705 2.2447984
1.4228226 -0.23789135 2.2444437
1.4200652 -0.26785043 2.2446063
1.4179947 -0.29789284 2.2442806
1.4164726 -0.32760587 2.2440445
1.4157007 -0.35776201 2.2431207
1.4150895 -0.38808241 2.2435327
1.4150157 -0.41783077 2.2439418
1.4155567 -0.44772682 2.2438643
1.4165392 -0.47775862 2.2437668
1.417915 -0.50781721 2.2436495
1.4196389 -0.53784817 2.2435322
1.421657 -0.56785274 2.2434478
1.4239573 -0.59796464 2.2433133
1.4264625 -0.62797987 2.2432168
1.429229 -0.65782845 2.2424452
1.4320889 -0.68807554 2.2421141
1.4342135 -0.71493906 2.2460463
1.4354119 -0.73594755 2.2542298
1.4429154 -0.12826739 2.2275486
1.441045 -0.15097222 2.2238278
1.4387809 -0.17933311 2.219372
1.4364662 -0.20856899 2.2153447
1.4335192 -0.23791888 2.2139225
1.4303662 -0.26793921 2.2141156
1.4278833 -0.29789478 2.2138638
1.425846 -0.32788974 2.2139311
1.4244261 -0.35783648 2.2138093
1.4235493 -0.3877694 2.2136908
1.4231774 -0.4179005 2.2135866
1.4232714 -0.44793746 2.2135074
1.4238082 -0.47788638 2.2133584
1.4247215 -0.50789022 2.2132268
1.4259801 -0.5378927 2.213079
1.4275478 -0.56796533 2.2128975
1.4293536 -0.59797233 2.2128181
1.4313892 -0.62790686 2.2126625
1.4332327 -0.65653819 2.2143955
1.4344026 -0.68290108 2.2210865
1.4410609 -0.22116156 2.1980984
1.4396124 -0.24098389 2.1954255
1.4377328 -0.26908544 2.1918807
1.4361093 -0.29866087 2.1882496
1.4346776 -0.32848758 2.1853404
1.4332609 -0.35790536 2.1840341
1.4319713 -0.38780099 2.1839094
1.4311732 -0.4177489 2.1838055
1.4308163 -0.447831 2.1837687
1.4309255 -0.47787017 2.1835384
1.4313743 -0.50787729 2.1834505
1.4321748 -0.53785944 2.1833038
1.432948 -0.56717509 2.1847119
1.4335923 -0.59676236 2.18856
1.4343886 -0.62468243 2.192934
1.4350235 -0.64440435 2.1966417
1.4378219 -0.36376786 2.1673157
1.4369407 -0.38949695 2.1659007
1.4362262 -0.41797736 2.1647813
1.4356164 -0.4476316 2.1646898
1.4354146 -0.47742218 2.1645744
1.4353695 -0.50612247 2.165359
1.4354614 -0.53133386 2.1666999
1.4596317 0.68590772 2.3541162
1.4595077 0.66031754 2.3550806
1.4593509 0.63161528 2.3555992
1.4590484 0.60009789 2.3560951
1.4586381 0.57078451 2.3564835
1.4583679 0.5415858 2.3556054
1.4578099 0.51104647 2.3552442
1.4572449 0.48253131 2.3544948
1.4565661 0.45397085 2.3536036
1.4559079 0.43149471 2.352936
1.437904 -0.82167518 2.3514144
1.4387389 -0.83030152 2.3579326
1.4611546 0.7377544 2.3357108
1.4613882 0.72095942 2.3361106
1.4617269 0.69134575 2.3372061
1.462164 0.66127014 2.3370328
1.4625024 0.63118887 2.3370512
1.4627522 0.60127282 2.3369672
1.4628795 0.57133794 2.3368623
1.4628444 0.54138523 2.3368006
1.4626358 0.51135236 2.3367274
1.4622202 0.48130494 2.3366778
1.4616261 0.4512502 2.336489
1.4607546 0.42125738 2.336431
1.4600139 0.39154285 2.335254
1.4591517 0.36156631 2.3336918
1.4581797 0.3316485 2.331728
1.4569966 0.30190331 2.3296168
1.4556997 0.27237949 2.3270667
1.4541599 0.2432787 2.3244472
1.4526664 0.21786316 2.3219163
1.438365 -0.81460005 2.3285203
1.4400601 -0.82950217 2.3322563
1.4644481 0.72140723 2.3065321
1.4655765 0.69132096 2.3066483
1.466723 0.66122556 2.3064487
1.4677676 0.63135499 2.3064859
1.4687262 0.60131854 2.3064499
1.4695467 0.57123321 2.3064167
1.4702069 0.54129058 2.3063335
1.4706649 0.51136553 2.3062854
1.4709263 0.48139384 2.3061402
1.4709007 0.45131689 2.3061333
1.4706166 0.4213421 2.3060629
1.4700657 0.39141104 2.3059003
1.4691684 0.3613373 2.3057854
1.4679193 0.33120206 2.3056552
1.4662744 0.30115497 2.3055716
1.4643054 0.27128717 2.3053041
1.4618934 0.24141823 2.3051164
1.459011 0.21135737 2.3050225
1.4565222 0.18204902 2.3032703
1.4544876 0.15235616 2.2995887
1.4522383 0.12273525 2.2957988
1.4501549 0.096095972 2.292088
1.4372896 -0.78633332 2.2946208
1.4393928 -0.80838627 2.3012638
1.4418386 -0.82949728 2.3019207
1.4675387 0.72148556 2.2768066
1.4693612 0.69144052 2.276742
1.4711696 0.66135579 2.2767453
1.4729427 0.63129038 2.2766533
1.474602 0.60134351 2.2766113
1.4761417 0.57138103 2.2764709
1.4774685 0.54120743 2.2765172
1.4785985 0.51114243 2.2764554
1.4793584 0.48136747 2.2767763
1.4793416 0.45133844 2.2787111
1.4791684 0.4213081 2.2799306
1.4788558 0.39149719 2.2804568
1.4781823 0.36129653 2.2809021
1.4776475 0.33124316 2.2798924
1.4765745 0.30098376 2.2792127
1.4753493 0.27088955 2.2778068
1.4738854 0.241033 2.2759428
1.4715351 0.21137869 2.275188
1.4683955 0.18138658 2.2751725
1.464843 0.1515383 2.2752132
1.4611201 0.12151504 2.2748117
1.4569998 0.091287196 2.2746294
1.4537252 0.062071074 2.2723408
1.4511584 0.032620277 2.267971
1.4486426 0.0044348715 2.2636821
1.4467287 -0.017249705 2.2602289
1.4366004 -0.75623465 2.2636435
1.4383616 -0.7788325 2.2710707
1.4414654 -0.80821556 2.2714498
1.4731312 0.69154298 2.2466736
1.4756378 0.66134709 2.2467041
1.4781095 0.63139778 2.2465827
1.4804586 0.6014623 2.2465994
1.4817352 0.57255954 2.2505262
1.4825187 0.54346567 2.2551196
1.4831409 0.51532221 2.2585671
1.4835876 0.4947015 2.2602959
1.4796209 0.22731887 2.259377
1.4784511 0.20810777 2.2580013
1.4767197 0.17988332 2.2552333
1.4746435 0.14990567 2.251924
1.4725523 0.12038325 2.247952
1.46971 0.091531225 2.2452455
1.4656205 0.061873406 2.2446136
1.461036 0.03165872 2.2445107
1.4563617 0.0016228268 2.2444086
1.4521439 -0.027615897 2.2434022
1.4493214 -0.056770872 2.2390609
1.4467158 -0.085415713 2.2344258
1.4447621 -0.10739501 2.2308414
1.4363334 -0.72339612 2.23457
1.43802 -0.7486617 2.2412024
1.4407864 -0.77822089 2.2418528
1.4436026 -0.80819976 2.2416847
1.4736547 0.72158301 2.2168307
1.476837 0.69154149 2.2165039
1.4800353 0.66154945 2.2163286
1.48225 0.63366127 2.2205925
1.4834583 0.60863268 2.2276263
1.4758874 0.081814803 2.2275815
1.473874 0.059236169 2.2243807
1.4713081 0.030724877 2.2199748
1.468497 0.00098346407 2.2152879
1.4641538 -0.028452333 2.2141576
1.4592439 -0.058402095 2.2141523
1.4544246 -0.088165 2.2141459
1.4499762 -0.11748026 2.2136869
1.4470823 -0.14675403 2.209657
1.4446287 -0.17620458 2.2048316
1.4425749 -0.20064403 2.2012811
1.4357119 -0.66529113 2.201674
1.4366677 -0.69025636 2.2084017
1.4384208 -0.71803302 2.2121012
1.4409173 -0.74811977 2.2118418
1.4433615 -0.77818394 2.2119567
1.4746237 0.73776871 2.1859734
1.4765999 0.72162396 2.1864941
1.4803567 0.69182348 2.1864347
1.482636 0.6669119 2.1930606
1.4738634 -0.010424061 2.1978345
1.4718291 -0.031885102 2.1940293
1.4690886 -0.06028733 2.1889505
1.4660152 -0.089437753 2.1843133
1.4613935 -0.11876925 2.183723
1.4566182 -0.14843437 2.1838098
1.4520416 -0.17807871 2.1840019
1.4478338 -0.20786816 2.1839585
1.4451245 -0.23727876 2.1807675
1.4429402 -0.26696441 2.1769509
1.4410605 -0.29601765 2.1735783
1.4395689 -0.32243934 2.1709576
1.4358633 -0.57226163 2.170382
1.4363041 -0.59939623 2.1738682
1.4369404 -0.62922758 2.1787124
1.4379889 -0.65804166 2.1824942
1.4398719 -0.68796778 2.1823559
1.4418668 -0.71804065 2.1821764
1.4439344 -0.74803919 2.1817052
1.4459351 -0.77807409 2.181963
1.4769011 0.73787743 2.1578248
1.4793713 0.72183633 2.1560004
1.482161 0.69889832 2.1612794
1.4713827 -0.098227628 2.1666043
1.4692233 -0.12036803 2.162396
1.4664446 -0.14923564 2.1569235
1.4630777 -0.17820074 2.1533685
1.4585656 -0.20813918 2.1532905
1.4543693 -0.23807642 2.153301
1.4504704 -0.26799864 2.1536775
1.4471471 -0.2979438 2.153754
1.4444038 -0.32789221 2.1536276
1.4424497 -0.35747814 2.1526532
1.4411435 -0.38764453 2.1509809
1.4401886 -0.4178488 2.1496825
1.4393673 -0.44779772 2.1495588
1.4389468 -0.47778356 2.1494431
1.438674 -0.50809038 2.1503441
1.4385737 -0.53821635 2.1521749
1.4389924 -0.56777763 2.1530311
1.4398978 -0.59792531 2.1528056
1.4410173 -0.62796402 2.1525838
1.4422933 -0.6578809 2.1524894
1.4437646 -0.68795395 2.1520531
1.4452798 -0.71802086 2.1520905
1.4469217 -0.74800283 2.1514733
1.4484931 -0.77801108 2.1517429
1.4791311 0.73774332 2.1287575
1.4809521 0.72641611 2.1287425
1.4686073 -0.18502346 2.1344681
1.4663129 -0.21008395 2.1296527
1.4637271 -0.23891309 2.1245053
1.4601525 -0.26827845 2.1231709
1.4566188 -0.29797921 2.1229367
1.4534674 -0.32793412 2.1229727
1.4508226 -0.35783967 2.1230175
1.448655 -0.38779244 2.1231444
1.4469903 -0.4178825 2.1231482
1.4457722 -0.44793645 2.1231403
1.4449807 -0.47789973 2.1230247
1.4445432 -0.50784826 2.1229231
1.4444374 -0.5378598 2.1227744
1.4446206 -0.56793994 2.1226094
1.4450541 -0.59789038 2.1224411
1.4456984 -0.62777281 2.1223094
1.4465469 -0.65786457 2.1220684
1.44756 -0.68788242 2.1216383
1.448616 -0.71788043 2.1217842
1.4498341 -0.74791735 2.1210861
1.4509878 -0.77790403 2.1213665
1.4809574 0.73787153 2.1022918
1.4814001 0.73365551 2.1066265
1.4674646 -0.25022909 2.1075468
1.4659857 -0.27059835 2.1031401
1.4638752 -0.29936478 2.097743
1.4617453 -0.32836846 2.0934963
1.4589369 -0.35790506 2.0930457
1.4564228 -0.38783774 2.0931289
1.4545006 -0.4180162 2.0925879
1.4529668 -0.44781634 2.0922687
1.4517335 -0.47793925 2.0922346
1.4508541 -0.50802857 2.0921977
1.4503028 -0.53795838 2.0921264
1.4500557 -0.56779838 2.0919232
1.4500161 -0.59768689 2.0919509
1.45024 -0.62776554 2.0916951
1.4506489 -0.6578939 2.091419
1.4511999 -0.68786258 2.0911822
1.4518431 -0.7177996 2.0911846
1.4525454 -0.74767745 2.0915091
1.4533178 -0.77786052 2.0917587
1.4541577 -0.80774271 2.0911345
1.4652301 -0.33799931 2.0766101
1.4638304 -0.36020574 2.0732191
1.4622074 -0.38921863 2.0690796
1.4609207 -0.4184072 2.064801
1.4595718 -0.44778267 2.0621359
1.45794 -0.47774068 2.0622315
1.4566659 -0.50770324 2.0622377
1.4557004 -0.53768045 2.0622475
1.4550275 -0.56767952 2.062166
1.4546024 -0.59770501 2.0620673
1.4544038 -0.62775946 2.0618951
1.4544032 -0.65776831 2.0616186
1.454537 -0.68780297 2.0615067
1.4547859 -0.71785742 2.0615423
1.4551027 -0.74791777 2.0619676
1.4555229 -0.77784026 2.0619245
1.4559743 -0.80786812 2.0618844
1.4626155 -0.45354626 2.0456183
1.4615865 -0.47921291 2.0430729
1.4605964 -0.50850576 2.0403869
1.4597337 -0.53843218 2.0381393
1.459021 -0.56831759 2.0363371
1.458468 -0.59808141 2.034842
1.4580101 -0.62774765 2.0340331
1.4577508 -0.65780926 2.032867
1.4574726 -0.68749386 2.0333235
1.4573013 -0.71751767 2.0341852
1.4572289 -0.74731326 2.0354435
1.4572219 -0.7768541 2.0372198
1.4572228 -0.80625135 2.0402427
1.4572595 -0.82863843 2.0427816
1.4837886 0.47357115 2.262253
1.483968 0.44989121 2.2637646
1.4840944 0.42037243 2.2649033
1.4840205 0.39001769 2.265481
1.4836277 0.36081675 2.2658501
1.4832945 0.33157533 2.2649612
1.482501 0.30266181 2.26425
1.4815012 0.27327633 2.2629011
1.4805166 0.2496777 2.2614839
1.4843847 0.58813614 2.2322674
1.4851516 0.56811905 2.2363014
1.4862285 0.54000318 2.2405229
1.4872291 0.51056266 2.2438405
1.4881723 0.48104858 2.2459409
1.4893616 0.45113096 2.2459903
1.490266 0.42119205 2.2458498
1.4907664 0.39130059 2.2458017
1.4909064 0.36126497 2.2456143
1.4905374 0.33110169 2.2455926
1.4897424 0.30124697 2.245435
1.4884291 0.27131027 2.2452755
1.4865074 0.24131067 2.2452936
1.4850434 0.21171136 2.2430131
1.4832956 0.18202427 2.2402458
1.4812804 0.15269528 2.2371793
1.4792532 0.12395168 2.2334394
1.4774785 0.10189562 2.2305961
1.4851866 0.62670302 2.2073822
1.4867396 0.60028344 2.214292
1.4892608 0.57132751 2.215837
1.4920024 0.54120582 2.2157073
1.4944913 0.51125276 2.2155399
1.4966894 0.48134947 2.2153699
1.4985626 0.45136783 2.2152157
1.5000707 0.42125028 2.2150598
1.5011559 0.39107427 2.2149403
1.5018035 0.36099118 2.214766
1.5019113 0.33110061 2.2147262
1.5015061 0.30106753 2.2146299
1.5005559 0.27106878 2.2144632
1.498946 0.24112985 2.2144787
1.4968358 0.2111541 2.2142613
1.4939526 0.18131927 2.2145526
1.4908862 0.15131199 2.2139986
1.4869486 0.12140407 2.2144787
1.4833382 0.091759846 2.2133772
1.4806837 0.062351637 2.2093887
1.4779803 0.033760104 2.2052352
1.4757955 0.0098163215 2.20123
1.4838052 0.67815512 2.1726265
1.4852993 0.65823936 2.1815386
1.4881629 0.63156229 2.1855378
1.4919484 0.60135806 2.1853881
1.4956059 0.57130909 2.1850107
1.49902 0.54139662 2.1847486
1.502197 0.51124042 2.1845143
1.5050461 0.48109242 2.18434
1.5066679 0.45201486 2.1869683
1.5075511 0.42207024 2.1906645
1.5080115 0.39242929 2.1938419
1.5083748 0.36235842 2.1955924
1.5083612 0.332203 2.1967888
1.5081389 0.30144262 2.1968827
1.5074044 0.27094516 2.1966808
1.5064975 0.24033646 2.19525
1.5051336 0.21019255 2.1934938
1.5034685 0.18022186 2.1910176
1.5015996 0.15041305 2.1877842
1.4994491 0.12063706 2.1840861
1.495802 0.091249093 2.1832104
1.4913768 0.061156675 2.1831539
1.4866676 0.031367715 2.1832368
1.4818919 0.001924274 2.1831322
1.4784666 -0.027450938 2.1793952
1.4755533 -0.056530405 2.174253
1.4732397 -0.079057403 2.1702991
1.4829477 0.70691895 2.1415551
1.4847951 0.68745726 2.1523106
1.4882098 0.66154379 2.156281
1.4927281 0.63154423 2.1557162
1.4971588 0.60150993 2.1553175
1.501435 0.57134753 2.1550419
1.5055302 0.54126453 2.1545374
1.5079924 0.513574 2.1588092
1.5094415 0.48772126 2.164722
1.5049073 0.10723211 2.1662154
1.5032257 0.088293612 2.163795
1.5007489 0.059848126 2.1593795
1.4980242 0.030777061 2.1546004
1.4938562 0.001829634 2.1529756
1.4885198 -0.02887959 2.1531842
1.4832045 -0.058588777 2.1535649
1.4783876 -0.087491341 2.1529694
1.4750297 -0.11637606 2.1485791
1.472542 -0.14437997 2.142312
1.4704074 -0.16518714 2.138552
1.4835684 0.71364242 2.1224453
1.4869069 0.69172162 2.1258185
1.4918803 0.66157109 2.1263616
1.4969867 0.63149536 2.1257684
1.5020143 0.60147905 2.1251993
1.5065445 0.57246846 2.125731
1.5089229 0.54762232 2.1332555
1.502807 0.018399054 2.1369531
1.5005767 -0.0021818564 2.1336274
1.4977009 -0.030695289 2.1280069
1.4943686 -0.059152227 2.1232507
1.489204 -0.088335648 2.1230748
1.4837205 -0.11860726 2.1233366
1.4786623 -0.14869705 2.1227899
1.4743381 -0.1775011 2.1212001
1.4714803 -0.20639035 2.1157467
1.4693301 -0.22973642 2.1112192
1.4819705 0.73770362 2.0869465
1.4844857 0.72048509 2.0959187
1.4896971 0.69177276 2.0959399
1.495237 0.66191632 2.0955343
1.500842 0.63158458 2.0956316
1.5061591 0.60236996 2.0956647
1.5087463 0.58099061 2.1038373
1.4995652 -0.067759313 2.1042132
1.4970435 -0.091260776 2.0990238
1.4937869 -0.11921097 2.0934513
1.4887828 -0.14795077 2.0929184
1.483351 -0.17804398 2.0934091
1.4785128 -0.20808089 2.0927472
1.4737931 -0.23771809 2.0928552
1.4707232 -0.26661566 2.0889378
1.4683263 -0.29542288 2.0837796
1.4666013 -0.31798708 2.0799394
1.4831253 0.73791254 2.0664554
1.4862576 0.72189206 2.0660841
1.4921364 0.6918534 2.0661206
1.4982134 0.66162187 2.0654211
1.5041914 0.63183099 2.0653162
1.5078855 0.61020386 2.0705402
1.4979448 -0.12851582 2.0751877
1.4954938 -0.15126418 2.0695703
1.4921415 -0.17935611 2.0637898
1.4877031 -0.20810789 2.061852
1.4826087 -0.23806219 2.0623696
1.4778672 -0.26802966 2.0628414
1.4735613 -0.297975 2.0632236
1.4701871 -0.32752043 2.0619113
1.4679129 -0.35689738 2.0579574
1.4660631 -0.38587013 2.0538373
1.4644811 -0.41340014 2.0504372
1.4879373 0.72207117 2.035882
1.4942329 0.6917367 2.0361326
1.5005885 0.66185224 2.0356588
1.5060408 0.63592333 2.0364962
1.4961306 -0.18836571 2.0439711
1.4937395 -0.2112765 2.0377281
1.4902884 -0.23874602 2.0329154
1.4855677 -0.26812485 2.0329747
1.4812108 -0.29820466 2.0325913
1.477423 -0.32798323 2.0317788
1.4737784 -0.35789332 2.0321417
1.4705859 -0.38786393 2.0324416
1.467834 -0.41784728 2.032676
1.4657707 -0.44738415 2.0315514
1.4645274 -0.47716975 2.0276315
1.4633106 -0.50702518 2.0248985
1.4622608 -0.53652585 2.0226595
1.4613602 -0.5661763 2.0207927
1.4605916 -0.59611195 2.0193205
1.4598956 -0.62767375 2.0184867
