# .PCD v0.7 - Point Cloud Data file format
VERSION 0.7
FIELDS x y z
SIZE 4 4 4
TYPE F F F
COUNT 1 1 1
WIDTH 1545
HEIGHT 1
VIEWPOINT 0 0 0 1 0 0 0
POINTS 1545
DATA ascii
1.5722473 0.51156408 1.5724952
1.5722959 0.480939 1.5725108
1.5723422 0.45148 1.5725259
1.5723886 0.42200932 1.5725409
1.5724373 0.39134729 1.5725565
1.5724852 0.36067265 1.5725722
1.5725319 0.3311663 1.5725874
1.5725787 0.30164769 1.5726024
1.5726271 0.27093622 1.5726181
1.5726736 0.24139415 1.5726331
1.5727201 0.21184005 1.5726482
1.5727687 0.18109164 1.572664
1.5728114 0.15221037 1.5737597
1.5728447 0.12352547 1.5783516
1.5728772 0.095183 1.5830711
1.5708833 1.4288754 1.5401813
1.5709112 1.4114145 1.5401864
1.5709589 1.3812199 1.5402797
1.5710037 1.3508202 1.5413854
1.5710518 1.3208003 1.5411861
1.5710979 1.2912755 1.5413642
1.5711434 1.2618437 1.5416611
1.5711913 1.2318828 1.5414214
1.5712395 1.201535 1.5414307
1.5712874 1.171174 1.5414399
1.5713351 1.1408013 1.5414491
1.571383 1.1108863 1.5411839
1.5714276 1.0816915 1.5417448
1.5714753 1.0519477 1.541476
1.5715234 1.0215256 1.5414853
1.5715711 0.99109167 1.5414945
1.5716195 0.96073681 1.5414196
1.5716655 0.9313575 1.5415125
1.5717115 0.90196598 1.5416055
1.5717599 0.87157476 1.5415307
1.5718079 0.841079 1.54154
1.571856 0.81075591 1.5413952
1.5719018 0.78143066 1.5417204
1.5719485 0.75186574 1.5415671
1.5719967 0.72132087 1.5415763
1.5720432 0.69049543 1.5424265
1.5720882 0.66135383 1.5427804
1.5721345 0.63194871 1.5427897
1.5721829 0.60135525 1.5427992
1.5722311 0.57074904 1.5428087
1.5722778 0.54130816 1.5428178
1.5723248 0.51185548 1.542827
1.5723727 0.48121265 1.5428365
1.5724213 0.45081457 1.5426314
1.5724664 0.42135608 1.5430793
1.5725148 0.39156833 1.5428644
1.5725625 0.36087576 1.542874
1.5726087 0.33135179 1.5428833
1.5726554 0.30181614 1.5428925
1.5727041 0.27108651 1.542902
1.5727463 0.24227096 1.5441678
1.5727794 0.2133518 1.5489882
1.5728123 0.18445557 1.5538874
1.5728366 0.16339202 1.5572153
1.5709636 1.4292405 1.5093083
1.5709867 1.4118557 1.5109093
1.5710344 1.381846 1.5107613
1.5710793 1.3516014 1.5118482
1.5711274 1.3212845 1.5118514
1.5711749 1.2909548 1.5118545
1.5712233 1.2607852 1.5117018
1.5712698 1.2311515 1.51173
1.5713148 1.2017947 1.5121523
1.571363 1.1718506 1.5118669
1.5714111 1.1414603 1.5118699
1.5714593 1.1110578 1.5118732
1.5715072 1.0807273 1.5117917
1.5715542 1.0511044 1.5117028
1.5715992 1.0217695 1.5121409
1.5716476 0.9916634 1.5118855
1.5716953 0.9611991 1.5118887
1.5717435 0.930722 1.5118918
1.5717912 0.90102875 1.5116282
1.5718362 0.87173146 1.5121567
1.5718842 0.84156352 1.5119011
1.5719328 0.81103736 1.5119044
1.5719807 0.78084427 1.5116485
1.5720258 0.75150084 1.5121775
1.5720735 0.72173524 1.5119135
1.5721214 0.69115984 1.5119168
1.57217 0.66065699 1.5118351
1.5722158 0.63124496 1.5120137
1.572263 0.60171342 1.5119261
1.5723112 0.57108855 1.5119292
1.5723596 0.54088509 1.5116425
1.5724049 0.51145333 1.5122306
1.5724525 0.48149744 1.5119385
1.5725012 0.4508231 1.5119417
1.5725474 0.42131677 1.5119448
1.5725939 0.39179853 1.5119478
1.5726426 0.36108711 1.511951
1.5726845 0.33226597 1.5133219
1.5727179 0.30337584 1.518029
1.5727506 0.27448806 1.5229251
1.5727754 0.25343108 1.5262508
1.5710368 1.429364 1.4811012
1.5710664 1.4107162 1.4810991
1.5711143 1.380751 1.4808378
1.5711598 1.3512477 1.4810929
1.5712061 1.3217335 1.4813482
1.5712538 1.2917315 1.4810867
1.5713019 1.2613713 1.4810836
1.5713499 1.2309991 1.4810805
1.5713983 1.2006996 1.4809928
1.5714452 1.1710154 1.4808693
1.5714898 1.1417121 1.4813603
1.5715384 1.1117252 1.4810681
1.5715861 1.0812912 1.481065
1.5716343 1.0508448 1.4810618
1.5716822 1.0208204 1.4807693
1.571727 0.99155432 1.4813503
1.571775 0.96177632 1.4810525
1.5718229 0.93128073 1.4810493
1.5718708 0.90077251 1.4810461
1.5719192 0.87095708 1.4807481
1.5719638 0.8416335 1.4813297
1.5720096 0.81180418 1.4817452
1.5720572 0.78094804 1.4822222
1.5721052 0.75085026 1.4819436
1.5721505 0.72148305 1.4824955
1.5721982 0.69155675 1.4822135
1.5722468 0.66095114 1.4822106
1.5722947 0.63099986 1.4819283
1.5723398 0.60158652 1.4824805
1.5723882 0.57141513 1.4822019
1.5724361 0.54075974 1.4821991
1.5724828 0.51127177 1.4821962
1.5725291 0.48177156 1.4821934
1.572578 0.45107934 1.4821905
1.5726221 0.42175528 1.4829128
1.572655 0.39305723 1.4878047
1.5726874 0.36497998 1.4922323
1.5727119 0.34465405 1.4952859
1.5711155 1.4302244 1.4503247
1.5711448 1.4115661 1.4503188
1.5711927 1.3812361 1.4503093
1.5712404 1.350895 1.4502997
1.5712881 1.3209213 1.4503918
1.5713325 1.2910124 1.4513489
1.571378 1.2616303 1.4517326
1.5714257 1.2317117 1.4514488
1.5714736 1.2013088 1.4514396
1.5715218 1.1708939 1.4514306
1.5715702 1.1406521 1.451267
1.5716164 1.1111972 1.4514122
1.5716624 1.0817307 1.4515575
1.5717106 1.0514525 1.4513941
1.5717587 1.0209757 1.4513848
1.5718067 0.99057919 1.4512913
1.5718524 0.96126193 1.4514569
1.5718994 0.93181866 1.4513577
1.5719476 0.9012928 1.4513485
1.571996 0.87075382 1.4513392
1.5720434 0.84097022 1.4510729
1.5720868 0.81132871 1.452332
1.572134 0.78139824 1.4525014
1.5721819 0.75081104 1.4524921
1.5722299 0.72100973 1.4522158
1.5722749 0.69160837 1.4527342
1.5723233 0.66133064 1.4524658
1.5723712 0.63069373 1.4524567
1.5724182 0.60122395 1.452448
1.5724654 0.57174242 1.4524393
1.5725133 0.54106909 1.4524302
1.5725582 0.51144052 1.4531695
1.5725899 0.48270687 1.4584088
1.5726228 0.45419779 1.462984
1.572648 0.43231341 1.4667033
1.5711946 1.4301397 1.4199847
1.5712228 1.4111172 1.4206471
1.5712686 1.3816602 1.4209211
1.5713165 1.3516773 1.420656
1.5713642 1.321077 1.4209313
1.5714095 1.2908902 1.4218116
1.5714579 1.260666 1.4216399
1.5715044 1.2309778 1.4216502
1.5715501 1.2015697 1.4220562
1.5715978 1.1715717 1.4217514
1.5716462 1.1411264 1.421736
1.5716941 1.1106688 1.4217207
1.5717421 1.0808125 1.4213974
1.5717869 1.0515364 1.4219972
1.571835 1.0215664 1.4216757
1.5718832 0.99105924 1.4216604
1.5719314 0.96053988 1.4216449
1.5719786 0.93099171 1.4214643
1.5720239 0.90164119 1.421772
1.5720725 0.87125683 1.4216
1.5721209 0.84068805 1.4215846
1.5721686 0.81099832 1.4213449
1.5722132 0.78160805 1.42177
1.5722623 0.75126082 1.4215394
1.57231 0.72064275 1.421524
1.5723569 0.6911903 1.4215093
1.5724034 0.661726 1.4214942
1.5724521 0.63107091 1.4214789
1.5724959 0.60136837 1.4225624
1.5725291 0.57236052 1.4275371
1.5725615 0.54423249 1.4320211
1.5725863 0.52235442 1.4357383
1.5712686 1.4307154 1.3910327
1.5713003 1.4108667 1.3910185
1.5713484 1.3805867 1.3909122
1.5713956 1.3508313 1.3907571
1.5714407 1.3215467 1.391261
1.5714889 1.2916683 1.3909335
1.571537 1.2612538 1.3909119
1.5715842 1.2308264 1.3908902
1.5716329 1.2005591 1.390712
1.5716794 1.1710125 1.3907883
1.5717254 1.1415547 1.3910415
1.5717738 1.1113371 1.390805
1.5718217 1.0808486 1.3907833
1.5718699 1.0506063 1.3905466
1.571914 1.0215331 1.3913401
1.5719597 0.99163252 1.3919108
1.5720079 0.96109539 1.3918891
1.5720561 0.93054521 1.3918676
1.572103 0.90105486 1.3917564
1.5721488 0.87166762 1.3919107
1.5721972 0.84117347 1.3918047
1.5722458 0.81057382 1.391783
1.5722921 0.78113985 1.3917624
1.5723386 0.75169414 1.3917416
1.572387 0.72105742 1.3917199
1.572433 0.6909765 1.3924538
1.5724673 0.66204095 1.3968499
1.5724986 0.63460684 1.401457
1.5725229 0.61357707 1.4047735
1.5713499 1.4313759 1.3596616
1.5713768 1.4117802 1.3611062
1.5714245 1.3813021 1.361289
1.5714724 1.350906 1.3612614
1.5715203 1.320498 1.3612336
1.5715685 1.290646 1.3609207
1.5716133 1.2614161 1.3614651
1.5716612 1.2315406 1.3611523
1.5717092 1.2010826 1.3611244
1.5717573 1.1706127 1.3610966
1.5718055 1.1406994 1.3607835
1.5718503 1.1114122 1.3613284
1.5718982 1.0814748 1.3610152
1.5719464 1.0509555 1.3609874
1.5719943 1.0202107 1.3613465
1.5720382 0.99103147 1.3621244
1.5720842 0.96156579 1.362183
1.5721328 0.93108404 1.3620703
1.5721812 0.90050322 1.3620425
1.5722282 0.87099135 1.3619246
1.5722742 0.84157395 1.3620744
1.5723224 0.81104237 1.3619615
1.5723681 0.78093135 1.3626956
1.5724025 0.75205141 1.3671576
1.5724332 0.72414243 1.3721254
1.5724592 0.70194411 1.3757161
1.5714262 1.4312404 1.3304108
1.5714571 1.4103999 1.3310156
1.571502 1.3811177 1.3316174
1.5715485 1.3514308 1.331727
1.5715966 1.3212641 1.3314781
1.5716448 1.2908258 1.3314441
1.5716927 1.2604604 1.3313253
1.5717402 1.2308029 1.3311995
1.5717857 1.2014321 1.3316047
1.5718338 1.1712915 1.331311
1.5718822 1.1407912 1.3312771
1.5719304 1.1105378 1.3310277
1.5719764 1.0811151 1.3313446
1.5720232 1.0514789 1.3312626
1.5720716 1.0210153 1.3311435
1.5721197 0.99045318 1.3311094
1.5721669 0.96086425 1.3309102
1.5722127 0.93147242 1.3312008
1.5722609 0.90104526 1.3310097
1.5723062 0.8710919 1.3319809
1.5723398 0.84207535 1.3365037
1.5723717 0.81417888 1.3411618
1.5723977 0.79198718 1.3447503
1.571502 1.4320712 1.3006412
1.5715353 1.4110183 1.3006134
1.5715835 1.3805976 1.3005731
1.5716317 1.3505123 1.3002732
1.5716777 1.3210757 1.3005971
1.5717239 1.2914325 1.3006122
1.5717721 1.2611351 1.3004149
1.5718176 1.2306244 1.3015679
1.5718658 1.2005068 1.301277
1.5719109 1.1712042 1.3017478
1.5719583 1.1414534 1.3014506
1.5720069 1.1109227 1.3014104
1.5720553 1.0803797 1.3013701
1.5721023 1.0507927 1.3011676
1.5721481 1.0214204 1.3014479
1.5721965 0.99102706 1.3012526
1.572243 0.96091324 1.3017988
1.5722773 0.93214828 1.305932
1.572309 0.90434664 1.3105543
1.5723341 0.88249534 1.3142625
1.5715809 1.4322835 1.2701855
1.5716119 1.4112687 1.2710904
1.5716598 1.3813994 1.2707585
1.571708 1.350949 1.2707121
1.5717561 1.3204864 1.2706656
1.571804 1.290483 1.2703431
1.5718491 1.2611996 1.2708557
1.5718939 1.2313392 1.271724
1.5719423 1.2008276 1.2716777
1.5719905 1.1703891 1.2715462
1.5720377 1.140754 1.2714521
1.572083 1.1113075 1.2717581
1.5721321 1.0810061 1.2714958
1.5721776 1.0508711 1.2720411
1.5722129 1.0220164 1.2761915
1.5722446 0.99417096 1.2809352
1.5722702 0.97116357 1.2850025
1.5716567 1.432566 1.2409954
1.5716915 1.4103165 1.2409573
1.5717402 1.3804755 1.2405956
1.5717845 1.3512089 1.241163
1.5718331 1.3212537 1.2408032
1.5718813 1.2907605 1.2407506
1.5719295 1.2603401 1.2406125
1.5719762 1.2307218 1.2405119
1.572022 1.2012939 1.2408121
1.5720701 1.1711611 1.240716
1.5721149 1.1406535 1.2419466
1.5721505 1.1119888 1.2456524
1.5721822 1.0839707 1.250355
1.5722086 1.0612088 1.2540359
1.571733 1.4333997 1.2111211
1.5717683 1.4111376 1.2110779
1.5718162 1.3806622 1.2110193
1.5718646 1.3502682 1.2108761
1.5719116 1.3206458 1.2107742
1.5719573 1.2912294 1.2110579
1.5720057 1.2609868 1.2107884
1.5720522 1.2308134 1.2111504
1.5720875 1.2021502 1.2150505
1.5721197 1.1736997 1.2199363
1.5721447 1.1496183 1.2249475
1.5718114 1.4332281 1.1809127
1.571847 1.410601 1.1810569
1.571893 1.3811177 1.1813588
1.5719416 1.3509613 1.1810334
1.5719881 1.3207767 1.1813928
1.5720236 1.2917343 1.1852515
1.5720556 1.2633545 1.1902826
1.5720823 1.2404686 1.1938733
1.571888 1.4338964 1.1512632
1.5719244 1.4105972 1.1513801
1.5719614 1.3816381 1.1546726
1.5719931 1.3532197 1.1598001
1.5720198 1.3302898 1.163414
1.5719368 1.4351485 1.1316029
1.5719562 1.4188821 1.134202
1.5739043 -1.3613425 2.0717206
1.5739286 -1.381802 2.0748181
1.5739598 -1.4091364 2.0794072
1.5739949 -1.4379886 2.0833809
1.5740399 -1.4677086 2.0840645
1.5740876 -1.4976219 2.0838726
1.5741339 -1.5278082 2.084383
1.5741823 -1.5577345 2.0840194
1.5742204 -1.5824848 2.0843532
1.5738409 -1.2701217 2.0407562
1.5738654 -1.2912974 2.044121
1.5738974 -1.3189197 2.0487883
1.5739307 -1.3483425 2.0536819
1.5739722 -1.3779154 2.0555949
1.5740211 -1.4077984 2.0550964
1.5740669 -1.4380276 2.0557694
1.5741153 -1.4679401 2.0553579
1.5741613 -1.4980046 2.0559475
1.5742092 -1.5279442 2.0556228
1.5742557 -1.5580271 2.0561123
1.574296 -1.583195 2.0558052
1.5738025 -1.2026736 2.0145888
1.5738344 -1.2296261 2.0186396
1.573869 -1.2583932 2.0228477
1.5739117 -1.2880334 2.0246038
1.5739596 -1.3178996 2.024128
1.5740058 -1.3481064 2.024682
1.5740535 -1.37801 2.0244672
1.5741007 -1.4081341 2.0247369
1.5741475 -1.4380779 2.024842
1.5741944 -1.4680338 2.0249469
1.5742412 -1.4980007 2.0250518
1.5742888 -1.52798 2.0251567
1.5743356 -1.5579711 2.0252619
1.5743749 -1.5831729 2.0253501
1.5737388 -1.11195 1.983961
1.5737698 -1.1395202 1.9888204
1.5738044 -1.1687129 1.99333
1.5738444 -1.1982667 1.9957869
1.5738928 -1.2278674 1.9952418
1.5739419 -1.2581506 1.9947211
1.5739887 -1.2880517 1.9948199
1.5740352 -1.3179653 1.9949188
1.5740824 -1.3478901 1.9950178
1.5741298 -1.377829 1.9951168
1.5741765 -1.4077765 1.9952159
1.5742238 -1.4377378 1.9953151
1.5742705 -1.4678155 1.9955041
1.5743179 -1.4977903 1.9954296
1.5743644 -1.5279006 1.9957751
1.5744126 -1.5578924 1.9955587
1.5744536 -1.584118 1.9957991
1.5736761 -1.0216115 1.9533255
1.5737076 -1.0496829 1.9582708
1.5737419 -1.078802 1.9627426
1.5737832 -1.108289 1.9647293
1.5738299 -1.1381484 1.9648223
1.5738773 -1.1680201 1.964915
1.5739241 -1.1979034 1.965008
1.573971 -1.2277983 1.965101
1.574018 -1.2579932 1.9654179
1.5740659 -1.2878891 1.9650744
1.5741119 -1.31803 1.9656757
1.5741603 -1.3479445 1.9651865
1.5742064 -1.3781127 1.9658735
1.5742548 -1.408049 1.9653552
1.5743008 -1.4380575 1.9660602
1.5743487 -1.4680182 1.9655416
1.5743947 -1.4980503 1.9662468
1.5744429 -1.5280355 1.9657283
1.5744889 -1.5580904 1.9664338
1.574532 -1.5844908 1.9658065
1.5736139 -0.93344247 1.9238818
1.5736444 -0.96026421 1.9284266
1.5736775 -0.98912597 1.9331316
1.573719 -1.0181979 1.9349364
1.5737677 -1.0483389 1.9344097
1.5738153 -1.0779182 1.9339285
1.5738623 -1.1079767 1.9341805
1.5739102 -1.1378365 1.9339468
1.573956 -1.168119 1.9344974
1.5740051 -1.1979877 1.9339728
1.5740514 -1.2282969 1.9345795
1.5740995 -1.2581992 1.9342295
1.574146 -1.2883369 1.9346248
1.5741935 -1.3182771 1.9345369
1.5742404 -1.3483355 1.9347147
1.5742874 -1.3783082 1.9348018
1.5743344 -1.4082934 1.9348891
1.5743814 -1.4382902 1.9349762
1.5744283 -1.4682113 1.9351478
1.574476 -1.4982229 1.9350599
1.5745223 -1.5281755 1.9353937
1.5745704 -1.5582048 1.9351597
1.5746119 -1.584847 1.9354023
1.5735502 -0.84248692 1.8930978
1.5735819 -0.87026912 1.8978167
1.5736151 -0.89924055 1.9026661
1.5736542 -0.92810953 1.9051439
1.5737009 -0.95793217 1.9052249
1.5737476 -0.98776716 1.9053061
1.5737951 -1.0181822 1.9056953
1.5738442 -1.0477189 1.9046103
1.5738931 -1.078469 1.9044538
1.5739408 -1.1083416 1.904361
1.5739872 -1.1383424 1.9045321
1.5740345 -1.1682495 1.9046131
1.5740817 -1.1981689 1.9046943
1.5741286 -1.2280996 1.9047754
1.5741756 -1.2580428 1.9048566
1.5742226 -1.2879972 1.9049377
1.57427 -1.317964 1.9050189
1.5743167 -1.3479419 1.9051002
1.5743642 -1.3779333 1.9051815
1.5744112 -1.4079354 1.9052628
1.5744584 -1.4379499 1.9053442
1.5745051 -1.4679762 1.9054257
1.5745523 -1.4980145 1.9055071
1.5745997 -1.5280646 1.9055885
1.5746469 -1.558127 1.90567
1.5746903 -1.5857946 1.905745
1.5734887 -0.75281668 1.8625045
1.573519 -0.78019845 1.8672175
1.5735521 -0.80915374 1.8720858
1.5735927 -0.83804321 1.8741699
1.5736392 -0.86804157 1.8744099
1.5736868 -0.89784014 1.8741645
1.5737348 -0.92851359 1.8745532
1.5737822 -0.95833677 1.8743074
1.5738289 -0.98838276 1.8745478
1.5738759 -1.0182481 1.8746229
1.5739226 -1.0481253 1.874698
1.5739696 -1.0780141 1.8747731
1.5740166 -1.1079147 1.8748484
1.5740638 -1.1381155 1.8751478
1.5741117 -1.1680164 1.8747853
1.5741575 -1.1981648 1.8753698
1.5742066 -1.2280819 1.8748614
1.5742521 -1.2582581 1.8755319
1.574301 -1.2881987 1.8749942
1.5743465 -1.3182145 1.8756828
1.5743949 -1.3481792 1.8751448
1.5744407 -1.3782185 1.8758337
1.5744896 -1.408208 1.8752955
1.5745349 -1.4381783 1.8759865
1.5745838 -1.4681927 1.8754481
1.5746291 -1.4981847 1.8761246
1.5746777 -1.5282249 1.8756154
1.574724 -1.5580485 1.8761455
1.5747681 -1.5857162 1.8758641
1.5734248 -0.66411662 1.8331096
1.5734549 -0.69040555 1.8374821
1.573488 -0.71916735 1.8423147
1.5735281 -0.74795705 1.8443787
1.573575 -0.77835953 1.8447332
1.5736234 -0.80812001 1.8442341
1.5736701 -0.83854669 1.8445886
1.5737171 -0.86836994 1.8446578
1.5737641 -0.8982048 1.8447269
1.5738111 -0.92805189 1.8447961
1.573858 -0.95791024 1.8448653
1.5739064 -0.98844439 1.84478
1.5739563 -1.0180407 1.8435603
1.5740027 -1.0484253 1.8441479
1.5740511 -1.078303 1.8436912
1.5740979 -1.1085179 1.8441125
1.5741448 -1.1384388 1.8440062
1.5741925 -1.1684799 1.8441662
1.5742395 -1.1984345 1.8442355
1.5742867 -1.2284012 1.8443048
1.5743334 -1.2583802 1.8443739
1.5743806 -1.2883707 1.8444432
1.5744276 -1.3183732 1.8445125
1.5744746 -1.348388 1.8445818
1.5745223 -1.3784145 1.8446511
1.5745692 -1.4084533 1.8447205
1.5746164 -1.4385034 1.8447899
1.5746627 -1.4682992 1.8450736
1.5747118 -1.4983523 1.8447037
1.5747571 -1.5282779 1.8452873
1.574806 -1.5583485 1.844771
1.5748494 -1.586527 1.8451316
1.5733614 -0.57326055 1.8023921
1.5733924 -0.60020542 1.8068451
1.5734251 -0.62900269 1.8117087
1.5734632 -0.65787351 1.814588
1.5735116 -0.6886602 1.8148092
1.573559 -0.71842104 1.8145514
1.5736055 -0.74840778 1.8147799
1.5736525 -0.77821231 1.8148431
1.573699 -0.80802912 1.8149064
1.5737464 -0.83824068 1.815237
1.5737944 -0.86804998 1.8147749
1.5738418 -0.89865762 1.8151832
1.573889 -0.92851162 1.8150711
1.573936 -0.95848531 1.8152252
1.5739834 -0.98812956 1.8149135
1.5740335 -1.0182981 1.8141655
1.5740802 -1.0482109 1.8142287
1.5741272 -1.0781355 1.8142918
1.5741744 -1.1080719 1.8143551
1.5742218 -1.1380203 1.8144183
1.5742686 -1.1680866 1.814572
1.5743163 -1.1980486 1.8144608
1.5743628 -1.2281473 1.8147715
1.5744104 -1.2581248 1.8145176
1.5744569 -1.2881519 1.8148984
1.5745051 -1.3181534 1.8146443
1.5745513 -1.3480997 1.8149523
1.5745993 -1.3781339 1.814841
1.5746462 -1.4080944 1.8149887
1.5746932 -1.4381626 1.8150523
1.5747409 -1.4682425 1.8151158
1.5747883 -1.4983348 1.8151793
1.5748355 -1.5284387 1.815243
1.5748823 -1.5583618 1.8154609
1.5749288 -1.5872676 1.8151894
1.5733001 -0.48322171 1.7714278
1.5733304 -0.51034522 1.7762309
1.5733626 -0.53898972 1.7811533
1.5734017 -0.56780654 1.7836136
1.5734506 -0.59874815 1.7836728
1.5734973 -0.62851155 1.7837298
1.5735438 -0.65828693 1.7837869
1.5735908 -0.68807411 1.7838439
1.573638 -0.71787333 1.7839009
1.5736861 -0.74870294 1.7841163
1.5737336 -0.7785061 1.7838519
1.5737805 -0.80853492 1.7840745
1.5738275 -0.83838177 1.7841316
1.5738742 -0.86824065 1.7841889
1.5739214 -0.8981111 1.7842461
1.5739684 -0.92799366 1.7843032
1.5740151 -0.95827168 1.7846285
1.5740638 -0.98814791 1.7841593
1.5741098 -1.0184655 1.7847663
1.5741587 -1.0483624 1.7842385
1.5742044 -1.0785185 1.7848064
1.5742528 -1.1084479 1.7844244
1.5742996 -1.138616 1.7847915
1.5743473 -1.1685845 1.784673
1.5743937 -1.1985843 1.7849064
1.5744412 -1.2285769 1.7847878
1.5744874 -1.2585119 1.7850929
1.5745358 -1.2885213 1.7848278
1.5745821 -1.3184856 1.7852662
1.5746303 -1.3485136 1.7848837
1.5746765 -1.3784162 1.7854563
1.5747252 -1.4084611 1.7849272
1.5747707 -1.4382982 1.7855763
1.5748196 -1.4683678 1.7850473
1.5748649 -1.4982214 1.7855611
1.5749135 -1.5283279 1.7852957
1.57496 -1.5582833 1.7855101
1.5750055 -1.5872231 1.7855655
1.573236 -0.39462894 1.7422279
1.5732651 -0.42028326 1.7465839
1.573298 -0.44913375 1.7515147
1.5733376 -0.47781852 1.7537402
1.5733857 -0.50864816 1.7538773
1.5734327 -0.53839338 1.7539284
1.5734794 -0.56815022 1.7539794
1.5735261 -0.59843552 1.7543101
1.5735745 -0.62817705 1.7538075
1.573622 -0.65868485 1.7541349
1.5736687 -0.6884895 1.7541862
1.5737159 -0.71830642 1.7542373
1.5737622 -0.74813479 1.7542886
1.5738096 -0.77797532 1.7543398
1.5738571 -0.80854285 1.7546676
1.5739052 -0.83836997 1.7541643
1.5739527 -0.86876315 1.7544956
1.5739992 -0.89865148 1.754547
1.5740466 -0.92855179 1.7545983
1.5740936 -0.95846397 1.7546496
1.5741405 -0.9883883 1.754701
1.5741878 -1.0183244 1.7547525
1.574235 -1.048272 1.7548039
1.5742822 -1.0782319 1.7548554
1.5743294 -1.108204 1.7549068
1.5743766 -1.1381873 1.7549583
1.5744233 -1.1681828 1.7550098
1.5744708 -1.1981908 1.7550614
1.574518 -1.2282101 1.7551129
1.5745654 -1.2582422 1.7551644
1.5746126 -1.2882853 1.755216
1.5746598 -1.3183411 1.7552676
1.5747073 -1.3484087 1.7553192
1.5747547 -1.3784883 1.7553709
1.5748019 -1.4085797 1.7554226
1.5748496 -1.4386834 1.7554742
1.5748954 -1.4684106 1.7557765
1.574944 -1.4985104 1.755319
1.5749893 -1.5282758 1.7558862
1.5750384 -1.5584004 1.7554286
1.5750847 -1.5881749 1.755731
1.5731726 -0.3039389 1.7116214
1.5732026 -0.33019537 1.715983
1.5732355 -0.35970503 1.7212354
1.5732744 -0.38835812 1.7237415
1.5733211 -0.41855091 1.7240821
1.5733678 -0.44827789 1.7241273
1.5734146 -0.47801667 1.7241725
1.5734634 -0.50895762 1.7242194
1.5735102 -0.53872043 1.7242646
1.5735571 -0.56849527 1.7243099
1.5736041 -0.59828162 1.7243552
1.5736511 -0.62808001 1.7244004
1.5736988 -0.65864277 1.7247367
1.5737464 -0.68842787 1.7241969
1.5737936 -0.71874022 1.7245382
1.5738409 -0.74858624 1.7245835
1.5738878 -0.77844435 1.7246289
1.5739346 -0.80831456 1.7246742
1.5739813 -0.8381964 1.7247196
1.5740285 -0.86818749 1.7248561
1.5740762 -0.89808291 1.7247256
1.5741231 -0.92848414 1.7251655
1.5741715 -0.95837748 1.7245955
1.5742178 -0.9886288 1.725208
1.5742662 -1.0185519 1.7247257
1.5743124 -1.0486379 1.7252547
1.5743611 -1.0785905 1.7248601
1.5744066 -1.1086046 1.725346
1.574455 -1.1385821 1.7249511
1.574501 -1.1686189 1.7254372
1.5745494 -1.1986212 1.7250422
1.5745955 -1.2285011 1.7256036
1.5746441 -1.2585193 1.7250619
1.5746899 -1.2884271 1.725713
1.5747383 -1.3184683 1.7251419
1.574784 -1.3483036 1.7257198
1.5748327 -1.3783784 1.7253246
1.5748789 -1.4082208 1.7255857
1.5749271 -1.4383414 1.7256315
1.5749738 -1.4684744 1.7256773
1.5750213 -1.498531 1.7258083
1.575069 -1.5286798 1.7256774
1.5751145 -1.5584038 1.7261219
1.5751636 -1.5885564 1.7255497
1.5731111 -0.21389796 1.6806563
1.5731411 -0.24014659 1.6850151
1.5731745 -0.27023074 1.690411
1.5732126 -0.29876637 1.6930619
1.5732594 -0.32846427 1.6931009
1.5733063 -0.3581734 1.6931399
1.5733528 -0.38789481 1.693179
1.5734017 -0.41881749 1.6932197
1.5734484 -0.44856268 1.6932586
1.5734951 -0.47831973 1.6932977
1.5735424 -0.50828302 1.6935025
1.57359 -0.53804237 1.6932197
1.5736377 -0.56885415 1.6934166
1.5736849 -0.59865898 1.6934558
1.5737321 -0.62847579 1.6934949
1.5737789 -0.65830433 1.6935341
1.5738258 -0.68814492 1.6935732
1.573873 -0.71847516 1.6939088
1.5739214 -0.74830282 1.693362
1.5739691 -0.77893293 1.6936926
1.5740161 -0.80882162 1.6937318
1.5740631 -0.83872187 1.693771
1.5741103 -0.86863387 1.6938103
1.5741575 -0.89855862 1.6938496
1.5742047 -0.92849427 1.6938889
1.5742517 -0.95844227 1.6939282
1.5742991 -0.9884029 1.6939676
1.5743461 -1.0183747 1.6940069
1.5743933 -1.048358 1.6940464
1.5744407 -1.0783544 1.6940857
1.5744877 -1.1083622 1.6941252
1.5745351 -1.138382 1.6941645
1.5745821 -1.1684135 1.694204
1.5746298 -1.198458 1.6942434
1.5746768 -1.228513 1.6942829
1.574724 -1.258581 1.6943225
1.5747714 -1.2886603 1.6943619
1.5748186 -1.3186641 1.6944867
1.5748668 -1.3487593 1.6943495
1.5749125 -1.3785229 1.6947715
1.5749614 -1.4086215 1.6942225
1.5750067 -1.4384187 1.6948277
1.5750556 -1.468544 1.6943372
1.5751019 -1.4983491 1.6946373
1.5751491 -1.5285246 1.6946769
1.5751967 -1.5587128 1.6947166
1.5752428 -1.5884606 1.6950476
1.5752926 -1.6037197 1.6851979
1.5730472 -0.12544562 1.6515489
1.5730758 -0.15026811 1.6556222
1.5731101 -0.18016216 1.6606984
1.573148 -0.20869015 1.663274
1.5731947 -0.23836957 1.6633072
1.5732419 -0.26877487 1.6636164
1.5732901 -0.29843518 1.663095
1.5733371 -0.32866722 1.6634078
1.5733838 -0.35839418 1.6634409
1.5734308 -0.38813302 1.6634741
1.5734794 -0.41907409 1.6635087
1.5735264 -0.44883677 1.6635418
1.5735731 -0.47861162 1.6635751
1.5736203 -0.50839818 1.6636082
1.5736673 -0.53819662 1.6636415
1.5737143 -0.56872231 1.6639514
1.5737629 -0.5985049 1.663429
1.5738101 -0.62885636 1.6637425
1.5738571 -0.65870291 1.6637758
1.5739038 -0.68856132 1.6638091
1.5739512 -0.71843129 1.6638423
1.5739982 -0.74831331 1.6638757
1.5740452 -0.778207 1.6639091
1.5740924 -0.8081131 1.6639423
1.5741396 -0.83854783 1.6642565
1.5741882 -0.86844063 1.6637332
1.5742345 -0.89871711 1.6642946
1.5742829 -0.92863739 1.6638187
1.5743291 -0.95873344 1.6643209
1.5743775 -0.98868376 1.6639245
1.5744238 -1.0187973 1.6643324
1.5744717 -1.0487788 1.6640471
1.574518 -1.0787159 1.6644549
1.5745664 -1.1087152 1.6640581
1.5746121 -1.1385823 1.6645879
1.5746608 -1.1685982 1.6640636
1.5747066 -1.198493 1.6646584
1.5747552 -1.2285333 1.664134
1.5748012 -1.2583439 1.6646081
1.5748496 -1.2884227 1.6643226
1.5748959 -1.3183403 1.6645112
1.5749438 -1.3484626 1.6645448
1.5749912 -1.3785948 1.6645784
1.5750387 -1.4087405 1.6646121
1.5750861 -1.4388983 1.6646457
1.5751317 -1.4684798 1.6649661
1.5751808 -1.4986298 1.6644248
1.5752265 -1.5283405 1.6648363
1.5752752 -1.5585368 1.664694
1.5753222 -1.5886577 1.6648126
1.5753467 -1.6043751 1.6648301
1.5729837 -0.034455173 1.620741
1.5730128 -0.06007852 1.6250867
1.5730472 -0.090104833 1.630098
1.5730839 -0.11870068 1.6333946
1.5731301 -0.14827746 1.6335137
1.5731785 -0.17913748 1.6335419
1.5732255 -0.20882249 1.6335691
1.5732725 -0.23851953 1.6335964
1.5733192 -0.26822811 1.6336236
1.5733659 -0.29794878 1.6336509
1.5734148 -0.32887062 1.6336792
1.5734615 -0.35861507 1.6337065
1.573508 -0.3883715 1.6337337
1.5735552 -0.41852456 1.6340292
1.5736036 -0.44826883 1.6335288
1.5736513 -0.47890377 1.6338167
1.573698 -0.50870788 1.6338439
1.573745 -0.53852415 1.6338713
1.5737922 -0.56835204 1.6338986
1.5738392 -0.59819186 1.6339259
1.5738864 -0.62870646 1.6342611
1.5739353 -0.65853083 1.6336721
1.573982 -0.68897808 1.6340091
1.5740292 -0.71886581 1.6340365
1.5740764 -0.74876565 1.634064
1.5741236 -0.77867728 1.6340914
1.5741706 -0.80860102 1.6341188
1.574218 -0.83853662 1.6341462
1.5742648 -0.86848372 1.6341736
1.5743122 -0.89844334 1.634201
1.5743597 -0.92841482 1.6342286
1.5744069 -0.95839787 1.634256
1.5744541 -0.98839319 1.6342835
1.5745013 -1.0184005 1.6343111
1.5745482 -1.0484197 1.6343386
1.5745959 -1.0784509 1.634366
1.5746431 -1.1084942 1.6343936
1.5746906 -1.1385493 1.6344211
1.574738 -1.1686165 1.6344486
1.5747857 -1.198696 1.6344762
1.5748332 -1.2287871 1.6345038
1.5748801 -1.2588904 1.6345314
1.5749264 -1.2886482 1.63482
1.5749757 -1.3187486 1.6343168
1.5750206 -1.3485453 1.6349112
1.5750697 -1.3786668 1.634349
1.5751159 -1.4083809 1.6346684
1.5751636 -1.4385556 1.634696
1.5752108 -1.4687431 1.6347237
1.5752571 -1.4985828 1.6350127
1.5753062 -1.528769 1.6345088
1.5753515 -1.5584573 1.6350323
1.5754011 -1.5886719 1.6346167
1.5754263 -1.6053398 1.6348488
1.5729222 0.055587966 1.5897752
1.5729516 0.029972065 1.5941182
1.5729852 -0.00010905042 1.5992429
1.5730219 -0.02854591 1.6025112
1.5730686 -0.058189522 1.6025321
1.5731173 -0.089031264 1.6025541
1.573164 -0.11869873 1.6025751
1.5732112 -0.14837815 1.6025962
1.5732591 -0.17925714 1.602618
1.5733063 -0.2089604 1.6026392
1.5733535 -0.23867567 1.6026602
1.5733995 -0.26831761 1.6027734
1.5734437 -0.29813394 1.6038936
1.5734923 -0.32907414 1.6039159
1.5735395 -0.35883626 1.6039373
1.5735865 -0.38861048 1.6039586
1.5736334 -0.41839626 1.6039799
1.5736802 -0.44819409 1.6040013
1.5737293 -0.47919628 1.6040236
1.5737762 -0.50901806 1.604045
1.5738232 -0.5388521 1.6040664
1.5738702 -0.56869781 1.6040878
1.5739174 -0.59855503 1.6041093
1.5739644 -0.62842453 1.6041307
1.5740116 -0.65830618 1.6041522
1.5740588 -0.6885134 1.6043931
1.5741069 -0.71838915 1.6039845
1.5741537 -0.74883646 1.6044686
1.5742021 -0.77873123 1.6039802
1.5742488 -0.80899543 1.6043451
1.5742962 -0.83893675 1.6041911
1.5743439 -0.86900806 1.6043034
1.5743911 -0.89898527 1.6043248
1.5744381 -0.92897475 1.6043464
1.5744855 -0.95897567 1.6043679
1.5745325 -0.98898894 1.6043894
1.5745797 -1.0190141 1.604411
1.5746267 -1.0488608 1.6045879
1.5746748 -1.0788898 1.6042899
1.5747209 -1.1086776 1.6047529
1.5747695 -1.1387166 1.6042155
1.5748148 -1.168533 1.6047773
1.5748637 -1.1985993 1.6042876
1.5749099 -1.2283219 1.6045611
1.5749576 -1.2584422 1.6045827
1.5750051 -1.2885753 1.6046044
1.5750525 -1.3187208 1.6046261
1.5751004 -1.3488781 1.6046476
1.5751464 -1.3786585 1.6049216
1.5751956 -1.4088113 1.6044312
1.5752409 -1.4385272 1.6049324
1.5752895 -1.4687089 1.6045218
1.5753365 -1.4986349 1.604755
1.5753839 -1.5287679 1.604862
1.5754316 -1.5589998 1.6047072
1.5754771 -1.5884622 1.6050402
1.5755084 -1.6053172 1.6032871
1.5728581 0.14385225 1.560792
1.5728862 0.11968242 1.5647737
1.5729201 0.089968786 1.5697128
1.572957 0.061525222 1.5727249
1.5730038 0.031899858 1.5727401
1.5730526 0.0010771006 1.5727558
1.5730991 -0.028572071 1.572771
1.5731459 -0.058233172 1.572786
1.5731945 -0.089093134 1.5728018
1.5732417 -0.11877811 1.572817
1.5732882 -0.14847505 1.5728321
1.5733371 -0.17937227 1.572848
1.573384 -0.20909314 1.5728631
1.5734308 -0.23882595 1.5728784
1.5734777 -0.26866007 1.5730004
1.5735214 -0.29831949 1.574101
1.57357 -0.32927799 1.5741169
1.5736172 -0.35905772 1.5741323
1.5736644 -0.38884956 1.5741478
1.5737114 -0.41865295 1.5741632
1.5737588 -0.44846842 1.5741787
1.5738056 -0.47829565 1.5741942
1.5738525 -0.50813502 1.5742097
1.5739014 -0.53918064 1.5742257
1.5739484 -0.56904346 1.5742413
1.5739954 -0.59891891 1.5742568
1.5740426 -0.62880605 1.5742722
1.57409 -0.65870512 1.5742878
1.574137 -0.68861628 1.5743033
1.5741844 -0.71853924 1.5743188
1.5742314 -0.74847406 1.5743344
1.5742786 -0.77842104 1.5743499
1.574326 -0.80837989 1.5743654
1.574373 -0.83835059 1.5743809
1.5744202 -0.86843103 1.574488
1.5744681 -0.89841521 1.5743265
1.5745149 -0.92843235 1.5745192
1.5745623 -0.95844066 1.5743577
1.5746098 -0.98838365 1.5744587
1.574657 -1.0184268 1.5744743
1.5747042 -1.0484812 1.5744898
1.5747519 -1.078548 1.5745054
1.5747998 -1.1086268 1.5745211
1.5748467 -1.1387174 1.5745367
1.574894 -1.1688201 1.5745522
1.5749414 -1.1989354 1.5745678
1.5749891 -1.2290616 1.5745835
1.5750358 -1.2587523 1.5748916
1.5750844 -1.2888724 1.5743163
1.5751295 -1.3185022 1.574797
1.5751784 -1.34866 1.5744873
1.5752251 -1.3786694 1.5746611
1.5752726 -1.4087794 1.5747625
1.5753207 -1.4389815 1.5746005
1.5753658 -1.4685723 1.5750062
1.5754154 -1.4987786 1.5744302
1.5754614 -1.5285741 1.5747387
1.5755091 -1.5587438 1.5748403
1.575557 -1.589007 1.5746782
1.5755839 -1.6060611 1.5747789
1.5727959 0.23397954 1.5301658
1.5728233 0.2099321 1.5341265
1.5728574 0.18007411 1.5391905
1.5728931 0.15144058 1.5427537
1.5729392 0.12198682 1.5429484
1.5729878 0.091183037 1.5429579
1.5730345 0.061552089 1.5429672
1.5730813 0.031909373 1.5429764
1.5731299 0.0010683909 1.542986
1.5731766 -0.028598264 1.5429952
1.5732236 -0.058276881 1.5430045
1.5732725 -0.089155063 1.543014
1.5733192 -0.11885758 1.5430233
1.5733664 -0.14857206 1.5430325
1.5734131 -0.17829821 1.5430418
1.5734599 -0.20803629 1.5430511
1.573509 -0.23897649 1.5430607
1.5735552 -0.26873854 1.54307
1.5736027 -0.29851258 1.5430793
1.5736494 -0.32849342 1.5432549
1.5736973 -0.35826877 1.5429406
1.5737455 -0.38909841 1.5431075
1.5737925 -0.4189204 1.5431167
1.5738392 -0.44875419 1.543126
1.5738866 -0.47859997 1.5431353
1.5739338 -0.50845754 1.5431446
1.5739806 -0.53842479 1.5432453
1.574028 -0.56829482 1.5430778
1.5740745 -0.598795 1.5439355
1.5741212 -0.62897688 1.544215
1.5741682 -0.65910512 1.5443885
1.5742154 -0.68903369 1.544398
1.5742629 -0.71897507 1.5444076
1.5743101 -0.74892747 1.5444171
1.5743573 -0.7788921 1.5444267
1.5744045 -0.80886859 1.5444362
1.5744514 -0.83885753 1.5444459
1.5744989 -0.86885792 1.5444554
1.5745463 -0.89887065 1.5444651
1.5745938 -0.92889512 1.5444746
1.5746415 -0.95893198 1.5444841
1.5746884 -0.98898041 1.5444938
1.5747364 -1.0190411 1.5445035
1.5747836 -1.0491138 1.544513
1.5748298 -1.0789104 1.5447344
1.5748787 -1.1089803 1.5443116
1.574924 -1.1386166 1.5448012
1.5749731 -1.1687057 1.5442984
1.5750194 -1.1984514 1.5445607
1.5750668 -1.2285962 1.5445702
1.5751145 -1.2587527 1.5445799
1.5751617 -1.2889214 1.5445895
1.5752096 -1.3191019 1.5445992
1.5752554 -1.348707 1.5448972
1.5753043 -1.3788793 1.5443298
1.5753503 -1.4085071 1.5446277
1.575398 -1.4387363 1.5446373
1.5754461 -1.4689772 1.544647
1.5754919 -1.4987406 1.5449355
1.5755415 -1.5289752 1.5443835
1.5755873 -1.5585604 1.5446756
1.5756352 -1.5888495 1.5446852
1.575664 -1.6070281 1.5446911
1.5727348 0.3237673 1.4990691
1.5727623 0.29949901 1.5032856
1.5727959 0.2701354 1.5082183
1.5728338 0.24067257 1.5115252
1.5728779 0.21135972 1.5123261
1.5729234 0.18128659 1.5131614
1.5729718 0.15076841 1.5129545
1.5730174 0.12117822 1.513387
1.5730653 0.091227502 1.5131714
1.573112 0.061579149 1.5131748
1.5731587 0.031918865 1.5131781
1.5732076 0.001059711 1.5131816
1.5732546 -0.02862449 1.5131848
1.5733013 -0.058320634 1.5131881
1.57335 -0.089217067 1.5131916
1.5733969 -0.11893716 1.5131949
1.5734437 -0.14866921 1.5131983
1.5734909 -0.17841293 1.5132016
1.5735378 -0.20816873 1.5132048
1.5735867 -0.23912713 1.5132084
1.5736337 -0.26890686 1.5132117
1.5736804 -0.2986986 1.5132151
1.5737276 -0.32850215 1.5132183
1.5737748 -0.35831755 1.5132216
1.5738235 -0.3893382 1.5132251
1.5738707 -0.41917771 1.5132284
1.5739179 -0.44902936 1.5132318
1.5739648 -0.47889268 1.5132351
1.5740118 -0.50876814 1.5132384
1.5740592 -0.53865516 1.5132418
1.5741062 -0.56855428 1.5132451
1.5741522 -0.59874499 1.5138712
1.5741978 -0.62837321 1.5144495
1.574245 -0.65869313 1.5147227
1.5742934 -0.68860567 1.5141953
1.5743396 -0.71887642 1.5147691
1.574389 -0.7488085 1.5141531
1.5744345 -0.77892023 1.51476
1.5744834 -0.80887842 1.5141732
1.5745289 -0.83892059 1.5147674
1.5745783 -0.86890364 1.5141803
1.5746236 -0.89878523 1.514793
1.5746725 -0.92879111 1.5141761
1.5747182 -0.95869398 1.5147592
1.5747671 -0.98872966 1.5142307
1.5748134 -1.0184526 1.5144962
1.5748608 -1.0485432 1.5144998
1.574908 -1.0786452 1.5145035
1.5749557 -1.1087595 1.5145071
1.5750029 -1.1388857 1.5145106
1.5750506 -1.1690245 1.5145142
1.5750985 -1.1991744 1.5145178
1.5751443 -1.2287964 1.5148313
1.5751939 -1.2589381 1.5142131
1.5752392 -1.2884908 1.5145285
1.5752869 -1.318689 1.5145322
1.5753345 -1.3488992 1.5145358
1.5753813 -1.3788534 1.5147569
1.5754302 -1.4090661 1.5143158
1.5754755 -1.4385873 1.5147142
1.5755246 -1.4688299 1.5143914
1.5755706 -1.4988332 1.514647
1.5756152 -1.5287775 1.5160162
1.575664 -1.5590447 1.5155058
1.5757098 -1.5885562 1.5157702
1.5757384 -1.606745 1.5157726
1.5726714 0.41160843 1.4702743
1.5726974 0.38890225 1.4740098
1.5727303 0.36006072 1.4788316
1.5727687 0.33045739 1.4820943
1.5728149 0.30097699 1.4821759
1.5728619 0.27139363 1.4821732
1.5729103 0.24061443 1.4821702
1.5729568 0.21091686 1.4822743
1.5730004 0.18138421 1.4833572
1.5730491 0.15056856 1.4833543
1.573096 0.12092634 1.4833519
1.5731428 0.091272056 1.4833492
1.5731909 0.061220568 1.4830779
1.5732362 0.031582799 1.4836046
1.5732853 0.0010509789 1.4833415
1.5733323 -0.028650725 1.4833387
1.5733788 -0.058364436 1.483336
1.5734277 -0.089279138 1.4833333
1.5734746 -0.1190168 1.4833307
1.5735221 -0.14876649 1.4833281
1.5735688 -0.17852782 1.4833255
1.5736158 -0.20830122 1.4833229
1.5736644 -0.23927793 1.4833201
1.5737116 -0.2690753 1.4833175
1.5737586 -0.29888475 1.483315
1.5738058 -0.32870585 1.4833122
1.5738528 -0.35853907 1.4833097
1.5738997 -0.38857907 1.4834738
1.5739481 -0.41841391 1.4831465
1.5739961 -0.4493047 1.4833016
1.5740433 -0.47918585 1.4832991
1.574091 -0.50907898 1.4832964
1.5741374 -0.53898388 1.4832938
1.5741847 -0.568901 1.4832911
1.5742323 -0.59882993 1.4832884
1.5742793 -0.62877071 1.483286
1.5743258 -0.65856534 1.4834703
1.5743706 -0.68867159 1.4844807
1.5744181 -0.71864754 1.4844784
1.5744655 -0.74863559 1.4844759
1.574513 -0.7786355 1.4844735
1.5745604 -0.80864763 1.4844711
1.5746078 -0.83867157 1.4844686
1.5746551 -0.86870772 1.4844663
1.574702 -0.89875555 1.4844638
1.5747499 -0.9288156 1.4844615
1.5747972 -0.95888764 1.484459
1.5748451 -0.98897171 1.4844567
1.574892 -1.0190678 1.4844542
1.5749393 -1.0490811 1.4845371
1.5749874 -1.0791899 1.4843581
1.5750332 -1.1088439 1.4847357
1.5750823 -1.1389525 1.4841559
1.5751283 -1.1685231 1.4844422
1.575176 -1.198691 1.4844398
1.5752234 -1.2288713 1.4844375
1.5752714 -1.2590632 1.4844351
1.5753191 -1.2892678 1.4844327
1.5753646 -1.3186933 1.4846907
1.5754137 -1.3488923 1.4841743
1.5754597 -1.3787438 1.4844255
1.5755079 -1.4089962 1.484423
1.5755556 -1.4392608 1.4844205
1.5756013 -1.4686408 1.4846398
1.5756505 -1.4989951 1.4843061
1.5756941 -1.5288776 1.4856198
1.5757406 -1.5588285 1.4858809
1.5757895 -1.5891284 1.4853438
1.5758183 -1.6077139 1.4856139
1.5726097 0.50165528 1.4393072
1.5726352 0.47887662 1.4433839
1.5726681 0.45020047 1.4482064
1.5727043 0.42040139 1.452136
1.5727501 0.39105949 1.4523859
1.5727973 0.36149415 1.452377
1.5728452 0.33073419 1.452368
1.5728922 0.30114529 1.4523593
1.5729394 0.2715444 1.4523504
1.5729873 0.2407472 1.4523414
1.5730343 0.21112253 1.4523327
1.5730815 0.1814858 1.4523239
1.5731299 0.15065141 1.4523146
1.5731766 0.12099084 1.4523059
1.5732236 0.091318399 1.4522972
1.5732722 0.060446594 1.4522878
1.5733194 0.030750293 1.4522792
1.573364 0.0013484061 1.4527988
1.57341 -0.028677013 1.4534577
1.5734568 -0.05840829 1.4534492
1.5735059 -0.089341305 1.4534402
1.5735526 -0.11909658 1.4534317
1.5735998 -0.14886385 1.4534233
1.5736465 -0.17864284 1.4534146
1.5736935 -0.20843382 1.4534059
1.5737424 -0.23942895 1.453397
1.5737898 -0.26924405 1.4533885
1.5738368 -0.29907113 1.4533799
1.5738842 -0.32891005 1.4533713
1.573931 -0.35876077 1.4533627
1.5739784 -0.38862348 1.4533541
1.5740254 -0.41849828 1.4533455
1.5740728 -0.44880232 1.4535961
1.5741212 -0.47866336 1.4530758
1.5741689 -0.50939047 1.4533193
1.5742161 -0.53931314 1.4533107
1.5742636 -0.56924826 1.4533021
1.5743108 -0.59919453 1.4532934
1.574358 -0.62915331 1.4532849
1.574405 -0.65928543 1.4534899
1.5744495 -0.68909013 1.4544685
1.5744972 -0.71908391 1.4544601
1.5745437 -0.74908972 1.4544518
1.5745914 -0.77910763 1.4544435
1.5746388 -0.8091374 1.454435
1.5746863 -0.83917934 1.4544265
1.5747344 -0.86923343 1.4544182
1.5747814 -0.89929968 1.4544096
1.5748279 -0.92902231 1.454664
1.5748765 -0.95908117 1.4541223
1.5749221 -0.98875093 1.4546555
1.574971 -1.0188351 1.4541137
1.5750172 -1.0486046 1.4543679
1.5750651 -1.0787417 1.4543595
1.5751123 -1.1088922 1.4543511
1.5751603 -1.1390545 1.4543426
1.5752079 -1.1692286 1.4543341
1.575254 -1.1988741 1.4546363
1.5753028 -1.229039 1.454005
1.5753489 -1.2586147 1.4543091
1.5753965 -1.2888365 1.4543008
1.5754445 -1.3190708 1.4542922
1.5754879 -1.3488954 1.4557445
1.5755367 -1.3791242 1.4552213
1.5755827 -1.4086012 1.4554743
1.5756302 -1.4388826 1.455466
1.5756783 -1.4691758 1.4554577
1.5757244 -1.4987901 1.4557334
1.5757737 -1.5290778 1.4551616
1.57582 -1.5589164 1.4554334
1.5758667 -1.5888672 1.4556797
1.5759006 -1.6082289 1.4544531
1.5725462 0.59252739 1.4085786
1.5725729 0.5691359 1.4124445
1.5726035 0.54037249 1.4182454
1.5726399 0.51044554 1.4223541
1.5726855 0.48113951 1.4225967
1.5727322 0.45159271 1.4225821
1.5727808 0.42085114 1.4225669
1.5728273 0.3912808 1.4225523
1.5728745 0.36169839 1.4225376
1.5729227 0.33092007 1.4225223
1.5729697 0.30131364 1.4225076
1.5730164 0.27169541 1.422493
1.573065 0.24087997 1.4224776
1.5731118 0.21123783 1.4224629
1.573159 0.18158367 1.4224482
1.5732074 0.15073104 1.4224329
1.5732543 0.12105301 1.4224181
1.5733013 0.091363057 1.4224035
1.5733502 0.060473043 1.4223881
1.5733972 0.030759085 1.4223733
1.5734429 0.00072513148 1.4229348
1.5734878 -0.028703332 1.4235411
1.5735352 -0.058452215 1.4235265
1.5735836 -0.089403525 1.4235114
1.5736308 -0.11917642 1.4234968
1.5736778 -0.14896134 1.4234822
1.5737247 -0.17875794 1.4234678
1.5737717 -0.20856661 1.4234532
1.5738204 -0.23940782 1.4235961
1.573868 -0.2692174 1.4232566
1.573915 -0.29925779 1.423409
1.5739622 -0.32911429 1.4233943
1.5740097 -0.35898295 1.4233798
1.5740564 -0.3888633 1.4233651
1.5741043 -0.41875574 1.4233506
1.574151 -0.44865996 1.423336
1.5741985 -0.47857648 1.4233214
1.5742457 -0.50860262 1.4233985
1.5742931 -0.53853124 1.4232063
1.5743406 -0.56897032 1.4235888
1.5743892 -0.59889424 1.4229529
1.574435 -0.6290164 1.4236314
1.574481 -0.65909082 1.4241759
1.574527 -0.68912613 1.4246747
1.5745759 -0.71910232 1.4241471
1.5746214 -0.7489633 1.4246815
1.5746701 -0.77895981 1.4240896
1.5747166 -0.80884397 1.4246242
1.574765 -0.83886927 1.4240961
1.574811 -0.86855692 1.4243352
1.5748587 -0.89864028 1.4243208
1.5749061 -0.92873567 1.4243064
1.5749538 -0.95884341 1.4242918
1.5750015 -0.98896313 1.4242774
1.5750492 -1.0190949 1.424263
1.5750968 -1.0492388 1.4242485
1.5751429 -1.079008 1.4244881
1.575192 -1.1091442 1.4239591
1.5752378 -1.1386414 1.4242971
1.5752857 -1.1688224 1.4241054
1.5753329 -1.1989307 1.4241767
1.5753813 -1.2291467 1.4241621
1.5754285 -1.2593747 1.4241476
1.5754743 -1.2888231 1.4243946
1.5755236 -1.3190457 1.4238647
1.5755665 -1.3488883 1.4253123
1.5756137 -1.3789855 1.4254572
1.5756626 -1.4092569 1.4251155
1.5757079 -1.4387337 1.4254382
1.5757573 -1.46903 1.4250963
1.5758042 -1.499174 1.4252414
1.57585 -1.5288706 1.4255408
1.5758998 -1.5591898 1.4249014
1.5759459 -1.5890034 1.4251989
1.5759768 -1.6084403 1.4251897
1.5724823 0.6811384 1.3793604
1.5725074 0.65907109 1.3830572
1.5725403 0.63022596 1.3879275
1.572578 0.60058093 1.3914646
1.572624 0.57123029 1.3916144
1.5726681 0.54153472 1.392616
1.5727165 0.51096636 1.3927662
1.5727642 0.48084769 1.3924354
1.5728095 0.45132437 1.3930326
1.5728576 0.42109054 1.3927037
1.5729072 0.39057678 1.3924663
1.572952 0.36100727 1.3928874
1.5730002 0.33110622 1.3926409
1.5730491 0.3007322 1.392328
1.5730944 0.27113798 1.3928963
1.5731425 0.24101301 1.3925781
1.5731895 0.21135329 1.3925575
1.5732362 0.18168171 1.3925369
1.5732853 0.15081061 1.3925154
1.5733318 0.12111525 1.3924947
1.573379 0.091407776 1.3924739
1.5734277 0.060499426 1.3924524
1.5734749 0.030767951 1.3924317
1.5735221 0.0010244586 1.392411
1.5735686 -0.028730731 1.3923903
1.5736146 -0.058206737 1.3928084
1.5736613 -0.089465827 1.3935475
1.5737088 -0.11925636 1.3935269
1.573756 -0.14905895 1.3935064
1.5738032 -0.17887326 1.3934859
1.5738502 -0.20869958 1.3934653
1.5738974 -0.23853771 1.3934448
1.5739446 -0.26838788 1.3934243
1.5739937 -0.29944453 1.3934028
1.5740409 -0.32931888 1.3933823
1.5740879 -0.35920528 1.3933618
1.5741353 -0.38910344 1.3933412
1.5741825 -0.41901374 1.3933206
1.5742295 -0.44893578 1.3933001
1.5742772 -0.47887 1.3932793
1.5743246 -0.50881594 1.3932588
1.5743718 -0.53877407 1.3932381
1.5744193 -0.56874382 1.3932173
1.5744665 -0.59872603 1.3931968
1.5745134 -0.62880957 1.3932838
1.5745575 -0.65870982 1.394359
1.5746055 -0.68872702 1.3943386
1.5746529 -0.7187562 1.3943181
1.5747001 -0.7487973 1.3942978
1.5747478 -0.77885097 1.3942772
1.574795 -0.80891645 1.3942568
1.5748427 -0.83899373 1.3942363
1.5748904 -0.86908317 1.3942159
1.5749383 -0.89918458 1.3941953
1.5749855 -0.92929834 1.3941748
1.5750322 -0.95915848 1.3943725
1.5750806 -0.98926973 1.3939065
1.5751269 -1.0187964 1.3943417
1.575175 -1.0489331 1.3938754
1.575222 -1.0788403 1.394073
1.5752695 -1.1090257 1.3940525
1.5753169 -1.1392233 1.394032
1.5753608 -1.1690258 1.3953296
1.5754097 -1.1993109 1.3949775
1.5754554 -1.22865 1.3951797
1.5755033 -1.2588954 1.3951594
1.575551 -1.2891524 1.395139
1.5755973 -1.3190324 1.3953736
1.5756471 -1.3492846 1.394837
1.5756924 -1.3787849 1.3950787
1.5757406 -1.4090908 1.3950583
1.5757887 -1.4394076 1.3950379
1.575834 -1.4687349 1.395184
1.5758829 -1.4990594 1.3948407
1.5759306 -1.5292195 1.3949776
1.5759766 -1.5588913 1.395242
1.576026 -1.5892397 1.3946564
1.576057 -1.6094114 1.3949236
1.5724208 0.77118754 1.3483926
1.5724459 0.74892378 1.3522654
1.5724783 0.7202872 1.3573271
1.5725143 0.69046706 1.3614299
1.5725608 0.66083461 1.3615286
1.5726056 0.63136089 1.3620902
1.5726547 0.60109276 1.3617715
1.5727029 0.57037616 1.3617436
1.5727499 0.54082918 1.3617169
1.5727961 0.51127023 1.3616903
1.572845 0.48051658 1.3616623
1.572892 0.45093408 1.3616356
1.5729356 0.4214212 1.3627064
1.5729842 0.39053988 1.3627779
1.5730312 0.36092198 1.3627512
1.5730777 0.3312923 1.3627248
1.5731268 0.30046511 1.362697
1.5731733 0.27081147 1.3626704
1.5732203 0.24114601 1.3626438
1.5732694 0.21046712 1.3624606
1.5733154 0.18080303 1.3627537
1.5733631 0.15089062 1.3625628
1.5734098 0.12117755 1.3625362
1.5734572 0.091452509 1.3625095
1.5735059 0.060525876 1.3624818
1.5735528 0.030776795 1.3624551
1.5735998 0.0010156929 1.3624285
1.573647 -0.028757105 1.3624016
1.5736933 -0.058837201 1.3628592
1.5737398 -0.089528203 1.3635476
1.5737875 -0.11933641 1.363521
1.5738342 -0.14915666 1.3634945
1.5738811 -0.17898865 1.3634682
1.5739286 -0.20883273 1.3634413
1.5739758 -0.23868851 1.363415
1.5740225 -0.26855645 1.3633884
1.5740721 -0.29963169 1.3633609
1.5741193 -0.32952365 1.3633342
1.5741665 -0.35942799 1.3633075
1.574214 -0.38934389 1.363281
1.5742614 -0.41927183 1.3632543
1.5743086 -0.44921181 1.3632278
1.5743551 -0.47916377 1.363201
1.574403 -0.50912762 1.3631744
1.5744505 -0.53910363 1.3631476
1.5744958 -0.56882274 1.3639027
1.5745423 -0.59907657 1.3642994
1.5745897 -0.62908775 1.364273
1.5746372 -0.65911096 1.3642465
1.5746846 -0.68914604 1.3642201
1.5747321 -0.71919346 1.3641937
1.5747795 -0.74925256 1.3641671
1.5748267 -0.77932417 1.3641405
1.5748749 -0.80940717 1.364114
1.5749211 -0.83921593 1.3643007
1.5749698 -0.86929435 1.3638396
1.5750155 -0.89884055 1.3642569
1.5750642 -0.92894357 1.3637956
1.5751109 -0.95879936 1.3639823
1.5751581 -0.98895448 1.3639557
1.5752063 -1.0191219 1.3639292
1.5752537 -1.0493015 1.3639024
1.5753014 -1.0794929 1.3638759
1.5753472 -1.1089073 1.3641115
1.5753968 -1.1390913 1.363569
1.5754399 -1.1689907 1.3649127
1.5754876 -1.1991421 1.3649797
1.5755353 -1.2293931 1.3649534
1.5755811 -1.2589269 1.3652282
1.5756304 -1.2891716 1.364606
1.5756772 -1.3190075 1.3648752
1.5757241 -1.3491284 1.3650084
1.575773 -1.379424 1.3646538
1.5758193 -1.4087288 1.3647968
1.5758669 -1.4390641 1.3647703
1.5759146 -1.4694118 1.3647438
1.5759609 -1.4988476 1.3649467
1.5760098 -1.5291985 1.3644726
1.5760567 -1.5593122 1.3646653
1.5760999 -1.5888726 1.3661146
1.5761349 -1.6094984 1.3651415
1.5723546 0.86269444 1.3184218
1.5723808 0.8386094 1.3228363
1.5724134 0.81017715 1.3275769
1.5724497 0.78049493 1.3316514
1.5724967 0.75057864 1.3317862
1.5725417 0.72112066 1.3322637
1.5725899 0.69120473 1.3319721
1.572638 0.66050738 1.3319383
1.5726852 0.63097864 1.3319055
1.5727317 0.60143805 1.3318727
1.5727804 0.57070339 1.3318388
1.5728271 0.54113883 1.3318062
1.5728738 0.51156282 1.3317733
1.5729225 0.48079112 1.3317394
1.5729694 0.45119134 1.3317065
1.5730135 0.42148569 1.3327862
1.5730615 0.39076129 1.3328379
1.5731087 0.36112615 1.3328053
1.5731554 0.33147883 1.3327726
1.5732043 0.30063337 1.3327389
1.5732512 0.27096245 1.3327062
1.5732987 0.24127941 1.3326735
1.5733469 0.21039663 1.3326398
1.5733941 0.18068965 1.3326072
1.573441 0.15097061 1.3325744
1.5734878 0.12123987 1.3325418
1.573535 0.091497302 1.332509
1.5735836 0.06055234 1.3324752
1.573631 0.030785676 1.3324425
1.573678 0.0010069087 1.3324096
1.573725 -0.028783521 1.3323771
1.5737693 -0.05835966 1.3332517
1.573818 -0.089590654 1.3335125
1.5738654 -0.11941653 1.3334801
1.5739121 -0.14925449 1.3334476
1.5739596 -0.17910421 1.333415
1.574007 -0.20896602 1.3333825
1.5740542 -0.23883949 1.3333499
1.5741012 -0.26872522 1.3333173
1.5741487 -0.2986227 1.3332847
1.5741961 -0.32853222 1.3332521
1.5742457 -0.35965076 1.3332181
1.5742922 -0.38958469 1.3331856
1.5743399 -0.41953042 1.3331529
1.5743873 -0.44948813 1.3331202
1.5744345 -0.47945803 1.3330876
1.5744817 -0.50943971 1.3330549
1.5745292 -0.53943354 1.3330222
1.5745752 -0.56968248 1.3338141
1.574621 -0.59944242 1.3341627
1.5746686 -0.6294716 1.3341302
1.5747161 -0.65951276 1.3340976
1.574764 -0.68956572 1.3340651
1.5748098 -0.71918672 1.3343277
1.5748589 -0.74922675 1.3337007
1.574904 -0.7788853 1.3341963
1.5749528 -0.80895948 1.3337177
1.5749996 -0.83880752 1.3339036
1.5750473 -0.86893296 1.333871
1.5750949 -0.89906961 1.3338385
1.5751429 -0.92921895 1.3338057
1.5751903 -0.95938045 1.3337731
1.5752339 -0.98915112 1.3350604
1.5752828 -1.0193983 1.3346958
1.5753284 -1.0487036 1.3348866
1.5753756 -1.0789119 1.3348539
1.575424 -1.1091329 1.3348215
1.5754712 -1.1392697 1.3348751
1.5755193 -1.1695039 1.3346648
1.5755653 -1.1988686 1.3348911
1.5756142 -1.2291185 1.3345354
