# .PCD v0.7 - Point Cloud Data file format
VERSION 0.7
FIELDS x y z rgb
SIZE 4 4 4 4
TYPE F F F U
COUNT 1 1 1 1
WIDTH 1271
HEIGHT 1
VIEWPOINT 0 0 0 1 0 0 0
POINTS 1271
DATA ascii
2.8052001 1.2722601 1.2287029 10134177
2.8052001 1.2681153 1.2287029 10134177
2.8052001 1.2639704 1.2287029 10199970
2.8052001 1.2598256 1.2287029 10199970
2.8052001 1.2556808 1.2287029 10199970
2.8052001 1.2515359 1.2287029 10199970
2.8011999 1.2473042 1.2290944 10265763
2.8011999 1.2431697 1.2290944 10199970
2.8052001 1.2391014 1.2287029 10199970
2.8052001 1.2349566 1.2287029 10134177
2.8052001 1.2308118 1.2287029 10069154
2.8141999 1.226747 1.2278218 10003361
2.8141999 1.2225791 1.2278218 10134947
2.8182001 1.2184262 1.2274302 10134177
2.8182001 1.2142481 1.2274302 10134179
2.8182001 1.2100698 1.2274302 10002591
2.8222001 1.2058759 1.2270386 9739419
2.8262 1.2016615 1.2266471 5659740
2.8262 1.1974627 1.2266471 2565931
2.8222001 1.1933105 1.2270386 2894896
2.8182001 1.1891788 1.2274302 3027252
2.8141999 1.1850678 1.2278218 9869724
2.8141999 1.1808997 1.2278218 10133664
2.8141999 1.1767318 1.2278218 10134177
2.8092 1.1726863 1.2283113 10134177
2.8052001 1.1686393 1.2287029 10134177
2.7972002 1.1647313 1.229486 10199972
2.7972002 1.160607 1.229486 10068386
2.7972002 1.1564827 1.229486 10068386
2.7972002 1.1523584 1.229486 10199972
2.7972002 1.1482341 1.229486 10068386
2.7972002 1.1441098 1.229486 10068386
2.7972002 1.1399854 1.229486 10134179
2.7972002 1.1358612 1.229486 10068386
2.8011999 1.1315364 1.2290944 10068386
2.8011999 1.1274018 1.2290944 10068386
2.8052001 1.1230462 1.2287029 10002591
2.8092 1.11867 1.2283113 10002591
2.8092 1.1145149 1.2283113 9607320
2.8141999 1.110045 1.2278218 9738906
2.8182001 1.1056149 1.2274302 2567217
2.8182001 1.1014367 1.2274302 2501939
2.8182001 1.0972586 1.2274302 2502711
2.8182001 1.0930804 1.2274302 4476501
2.8182001 1.0889022 1.2274302 9542558
2.8222001 1.0844105 1.2270386 9674398
2.8182001 1.0805458 1.2274302 9871777
2.8222001 1.0760336 1.2270386 9806497
2.8222001 1.0718452 1.2270386 9806497
2.8262 1.0673022 1.2266471 9674911
2.8222001 1.0634682 1.2270386 9740191
2.8222001 1.0592798 1.2270386 9674398
2.8262 1.054706 1.2266471 9740191
2.8222001 1.0509028 1.2270386 9609118
2.8182001 1.0471202 1.2274302 9477532
2.8182001 1.042942 1.2274302 9674911
2.8222001 1.0383375 1.2270386 9806497
2.8222001 1.0341489 1.2270386 9674911
2.8222001 1.0299605 1.2270386 9477532
2.8222001 1.0257721 1.2270386 9609118
2.8222001 1.0215836 1.2270386 9477532
2.8262 1.0169175 1.2266471 9411739
2.8262 1.0127187 1.2266471 9082259
2.8312001 1.0078971 1.2261577 9409171
2.8352001 1.0031772 1.2257661 3157041
2.8352001 0.99895525 1.2257661 2895412
2.8352001 0.99473345 1.2257661 2961205
2.8352001 0.99051166 1.2257661 9475997
2.8392 0.98574024 1.2253745 9476249
2.8392 0.98150814 1.2253745 9607835
2.8442001 0.97656345 1.224885 9673628
2.8392 0.97304398 1.2253745 9673628
2.8392 0.96881193 1.2253745 9673628
2.8392 0.96457982 1.2253745 9477019
2.8352001 0.96095884 1.2257661 9477019
2.8312001 0.95735848 1.2261577 9542812
2.8312001 0.95314693 1.2261577 9542810
2.8262 0.94973779 1.2266471 9477530
2.8222001 0.94619131 1.2270386 9542810
2.8222001 0.94200289 1.2270386 9477017
2.8262 0.93714166 1.2266471 9477017
2.8262 0.93294287 1.2266471 9411224
2.8262 0.9287442 1.2266471 9411224
2.8262 0.92454547 1.2266471 9476247
2.8262 0.92034674 1.2266471 9278868
2.8262 0.91614801 1.2266471 9015696
2.8262 0.91194928 1.2266471 8818317
2.8312001 0.90681982 1.2261577 2566449
2.8312001 0.90260828 1.2261577 2698035
2.8262 0.89935309 1.2266471 3027770
2.8312001 0.89418507 1.2261577 3095359
2.8312001 0.88997352 1.2261577 9016468
2.8312001 0.88576198 1.2261577 9476249
2.8312001 0.88155043 1.2261577 9344663
2.8312001 0.87733889 1.2261577 9409943
2.8312001 0.87312734 1.2261577 9409943
2.8312001 0.8689158 1.2261577 9541527
2.8312001 0.86470419 1.2261577 9607320
2.8312001 0.86049259 1.2261577 9344661
2.8312001 0.85628104 1.2261577 9278870
2.8312001 0.8520695 1.2261577 9278870
2.8312001 0.84785795 1.2261577 9278868
2.8312001 0.84364641 1.2261577 9213075
2.8312001 0.83943486 1.2261577 9082259
2.8262 0.83637226 1.2266471 9016466
2.8262 0.83217347 1.2266471 9081489
2.8262 0.82797474 1.2266471 9015696
2.8262 0.82377601 1.2266471 8752524
2.8262 0.81957734 1.2266471 5789786
2.8312001 0.81416547 1.2261577 2829101
2.8312001 0.80995393 1.2261577 3026998
2.8352001 0.8047514 1.2257661 3421756
2.8392 0.79952824 1.2253745 9015446
2.8442001 0.79403174 1.224885 9147030
2.8442001 0.78978682 1.224885 9213075
2.8442001 0.78554189 1.224885 9081489
2.8482001 0.78025466 1.2244935 9213075
2.8482001 0.77599949 1.2244935 9213075
2.8442001 0.77280718 1.224885 9213075
2.8442001 0.76856226 1.224885 9147282
2.8442001 0.76431733 1.224885 9147282
2.8442001 0.76007241 1.224885 9015696
2.8442001 0.75582749 1.224885 9015698
2.8442001 0.75158256 1.224885 9015696
2.8442001 0.74733764 1.224885 9081489
2.8442001 0.74309266 1.224885 9081487
2.8442001 0.73884773 1.224885 8884108
2.8442001 0.73460281 1.224885 8818315
2.8442001 0.73035789 1.224885 8291973
2.8442001 0.72611296 1.224885 7173492
2.8442001 0.7218681 1.224885 2304299
2.8442001 0.71762317 1.224885 2500654
2.8482001 0.71217161 1.2244935 3224377
2.8482001 0.70791644 1.2244935 7435129
2.8532 0.7021274 1.224004 8818317
2.8532 0.69785935 1.224004 8884110
2.8572001 0.69234371 1.2236124 9015696
2.8572001 0.68806541 1.2236124 9015696
2.8572001 0.68378717 1.2236124 8884110
2.8622 0.6779108 1.223123 8884112
2.8662 0.67233098 1.2227314 9015698
2.8442001 1.9104464 1.2206401 10262673
2.8442001 1.9062016 1.2206401 10197393
2.8482001 1.9036245 1.2202382 10197393
2.8532 1.9014413 1.219736 10197393
2.8532 1.8971732 1.219736 10131600
2.8532 1.8929052 1.219736 10262932
2.8532 1.8886372 1.219736 10197141
2.8532 1.8843691 1.219736 10328727
2.8482001 1.8780934 1.2202382 10328727
2.8482001 1.8738382 1.2202382 10328474
2.8442001 1.8679972 1.2206401 10131865
2.8392 1.861783 1.2211424 10066325
2.8392 1.8575509 1.2211424 10197911
2.8352001 1.851764 1.2215443 10132118
2.8312001 1.8459973 1.2219461 10065555
2.8312001 1.8417859 1.2219461 10065553
2.8262 1.835669 1.2224483 9605778
2.8262 1.8314704 1.2224483 3026478
2.8222001 1.8257681 1.2228502 2106150
2.8182001 1.8200862 1.2232521 2236712
2.8222001 1.8173912 1.2228502 4078911
2.8222001 1.8132026 1.2228502 9475215
2.8222001 1.8090142 1.2228502 9738387
2.8222001 1.8048258 1.2228502 9869201
2.8182001 1.7991953 1.2232521 10131600
2.8182001 1.795017 1.2232521 10328979
2.8222001 1.7922604 1.2228502 10328979
2.8222001 1.7880719 1.2228502 10263186
2.8222001 1.7838835 1.2228502 10066577
2.8222001 1.779695 1.2228502 10132116
2.8222001 1.7755065 1.2228502 10132116
2.8222001 1.7713181 1.2228502 10197909
2.8222001 1.7671297 1.2228502 10132375
2.8182001 1.7615916 1.2232521 10000789
2.8141999 1.756074 1.2236539 10066582
2.8141999 1.751906 1.2236539 10198168
2.8141999 1.7477381 1.2236539 10198168
2.8141999 1.7435702 1.2236539 10066582
2.8141999 1.7394023 1.2236539 10132375
2.8141999 1.7352343 1.2236539 10458515
2.8141999 1.7310665 1.2236539 10524308
2.8141999 1.7268984 1.2236539 2762281
2.8182001 1.7239878 1.2232521 2237736
2.8222001 1.7210566 1.2228502 2434091
2.8222001 1.7168682 1.2228502 2434091
2.8222001 1.7126796 1.2228502 9802130
2.8262 1.7097073 1.2224483 10000532
2.8262 1.7055086 1.2224483 9804697
2.8262 1.7013099 1.2224483 9871003
2.8262 1.6971111 1.2224483 10002589
2.8222001 1.6917374 1.2228502 9870490
2.8222001 1.6875489 1.2228502 9541525
2.8222001 1.6833603 1.2228502 10133664
2.8182001 1.6780276 1.2232521 10133664
2.8182001 1.6738495 1.2232521 9936285
2.8141999 1.6685475 1.2236539 10067871
2.8141999 1.6643796 1.2236539 10067871
2.8141999 1.6602116 1.2236539 9936285
2.8141999 1.6560438 1.2236539 10067871
2.8092 1.6505225 1.2241561 10133664
2.8052001 1.6452949 1.224558 10199457
2.8052001 1.64115 1.224558 10133664
2.8052001 1.6370052 1.224558 10199457
2.8052001 1.6328604 1.224558 10133664
2.8092 1.6297469 1.2241561 8947848
2.8092 1.6255919 1.2241561 2434863
2.8092 1.6214367 1.2241561 2565931
2.8092 1.6172817 1.2241561 2434345
2.8092 1.6131265 1.2241561 3618360
2.8092 1.6089715 1.2241561 11117728
2.8141999 1.6060286 1.2236539 10658460
2.8141999 1.6018606 1.2236539 10987174
2.8141999 1.5976927 1.2236539 10987174
2.8092 1.5923511 1.2241561 11053226
2.8092 1.5881959 1.2241561 10856617
2.8092 1.5840409 1.2241561 10725801
2.8092 1.5798857 1.2241561 10660008
2.8092 1.5757307 1.2241561 10660008
2.8092 1.5715756 1.2241561 10594728
2.8092 1.5674205 1.2241561 10594728
2.8092 1.5632653 1.2241561 10660521
2.8092 1.5591103 1.2241561 10726314
2.8141999 1.5560133 1.2236539 10594728
2.8141999 1.5518456 1.2236539 10594728
2.8141999 1.5476775 1.2236539 10594728
2.8092 1.5424899 1.2241561 10726314
2.8092 1.5383348 1.2241561 10725799
2.8052001 1.5333844 1.224558 10725029
2.8011999 1.5284545 1.2249599 10659236
2.8011999 1.52432 1.2249599 10790822
2.8011999 1.5201855 1.2249599 10461857
2.7972002 1.5152967 1.2253617 10461859
2.7972002 1.5111724 1.2253617 5989738
2.7972002 1.5070481 1.2253617 3225149
2.7972002 1.5029238 1.2253617 2830391
2.7972002 1.4987996 1.2253617 2828851
2.7972002 1.4946753 1.2253617 7302773
2.7972002 1.490551 1.2253617 9738906
2.7972002 1.4864266 1.2253617 9936285
2.7932 1.4816303 1.2257636 9870492
2.7932 1.4775162 1.2257636 10199970
2.7932 1.4734023 1.2257636 10331554
2.7892001 1.4686469 1.2261654 10134175
2.7852001 1.4639121 1.2265673 10265761
2.7852001 1.4598186 1.2265673 10134175
2.7811999 1.4551146 1.226969 10199455
2.7852001 1.4516317 1.2265673 10199457
2.7852001 1.4475381 1.2265673 10331043
2.7852001 1.4434446 1.2265673 10199457
2.7892001 1.4399205 1.2261654 10133666
2.7932 1.4363759 1.2257636 10199459
2.7932 1.4322618 1.2257636 10067873
2.7972002 1.4286864 1.2253617 9936287
2.7972002 1.4245622 1.2253617 9871007
2.8011999 1.4209559 1.2249599 9805214
2.8011999 1.4168214 1.2249599 9674398
2.8011999 1.4126868 1.2249599 9740191
2.8052001 1.4090395 1.224558 9477019
2.8092 1.4053717 1.2241561 3094328
2.8092 1.4012166 1.2241561 2895416
2.8141999 1.3976321 1.2236539 2763828
2.8092 1.3929064 1.2241561 2369070
2.8092 1.3887513 1.2241561 10066851
2.8092 1.3845962 1.2241561 9607068
2.8052001 1.3800257 1.224558 10067873
2.8011999 1.3754756 1.2249599 10199457
2.7972002 1.3709463 1.2253617 10199457
2.7972002 1.366822 1.2253617 10067871
2.7932 1.3623233 1.2257636 10067871
2.7932 1.3582093 1.2257636 10067871
2.7932 1.3540952 1.2257636 10067871
2.7932 1.3499812 1.2257636 10068384
2.7972002 1.3462005 1.2253617 10068384
2.8011999 1.3423991 1.2249599 10134179
2.8052001 1.3385774 1.224558 10069156
2.8052001 1.3344326 1.224558 10003363
2.8052001 1.3302877 1.224558 9871777
2.8092 1.3264248 1.2241561 9740191
2.8092 1.3222698 1.2241561 9937570
2.8141999 1.3184415 1.2236539 10003363
2.8141999 1.3142735 1.2236539 9805214
2.8182001 1.3103465 1.2232521 9871005
2.8141999 1.3059376 1.2236539 10067871
2.8141999 1.3017697 1.2236539 2435633
2.8141999 1.2976018 1.2236539 2435633
2.8141999 1.2934339 1.2236539 2435633
2.8092 1.289029 1.2241561 2828849
2.8092 1.2848738 1.2241561 9935515
2.8092 1.2807188 1.2241561 10001308
2.8052001 1.276405 1.224558 10133666
2.8052001 1.2722601 1.224558 10068386
2.8052001 1.2681153 1.224558 10068386
2.8011999 1.2638425 1.2249599 10134179
2.8011999 1.2597079 1.2249599 10199972
2.8011999 1.2555733 1.2249599 10265765
2.8011999 1.2514387 1.2249599 10199972
2.8011999 1.2473042 1.2249599 10265765
2.8011999 1.2431697 1.2249599 10265765
2.8011999 1.239035 1.2249599 10265763
2.8052001 1.2349566 1.224558 10134177
2.8052001 1.2308118 1.224558 10134177
2.8141999 1.226747 1.2236539 10134179
2.8141999 1.2225791 1.2236539 10134179
2.8182001 1.2184262 1.2232521 10134179
2.8182001 1.2142481 1.2232521 10134179
2.8182001 1.2100698 1.2232521 10002591
2.8222001 1.2058759 1.2228502 9805212
2.8262 1.2016615 1.2224483 6186082
2.8262 1.1974627 1.2224483 2565931
2.8222001 1.1933105 1.2228502 2698033
2.8222001 1.1891221 1.2228502 2698033
2.8141999 1.1850678 1.2236539 9408919
2.8141999 1.1808997 1.2236539 9936283
2.8141999 1.1767318 1.2236539 10068382
2.8052001 1.1727841 1.224558 10069154
2.8052001 1.1686393 1.224558 9937568
2.7972002 1.1647313 1.2253617 10069154
2.7972002 1.160607 1.2253617 9937568
2.7972002 1.1564827 1.2253617 10068386
2.7932 1.1525075 1.2257636 10265765
2.7932 1.1483935 1.2257636 10068386
2.7972002 1.1441098 1.2253617 10134179
2.7972002 1.1399854 1.2253617 10134179
2.7972002 1.1358612 1.2253617 10002593
2.7972002 1.1317369 1.2253617 10068386
2.8011999 1.1274018 1.2249599 10134179
2.8011999 1.1232673 1.2249599 10002591
2.8092 1.11867 1.2241561 9871005
2.8092 1.1145149 1.2241561 9607320
2.8141999 1.110045 1.2236539 9804699
2.8141999 1.105877 1.2236539 2566447
2.8182001 1.1014367 1.2232521 2501939
2.8182001 1.0972586 1.2232521 2568504
2.8182001 1.0930804 1.2232521 3884364
2.8182001 1.0889022 1.2232521 9542558
2.8222001 1.0844105 1.2228502 9674398
2.8182001 1.0805458 1.2232521 9871777
2.8182001 1.0763676 1.2232521 9871777
2.8222001 1.0718452 1.2228502 9937570
2.8222001 1.0676566 1.2228502 9740191
2.8222001 1.0634682 1.2228502 9740191
2.8262 1.0589046 1.2224483 9740191
2.8222001 1.0550913 1.2228502 9871777
2.8222001 1.0509028 1.2228502 9674398
2.8222001 1.0467144 1.2228502 9543325
2.8222001 1.0425259 1.2228502 9674911
2.8222001 1.0383375 1.2228502 9872290
2.8222001 1.0341489 1.2228502 9872290
2.8222001 1.0299605 1.2228502 9674398
2.8222001 1.0257721 1.2228502 9674398
2.8222001 1.0215836 1.2228502 9477019
2.8262 1.0169175 1.2224483 9345433
2.8262 1.0127187 1.2224483 9148054
2.8312001 1.0078971 1.2219461 9343380
2.8352001 1.0031772 1.2215443 3156787
2.8352001 0.99895525 1.2215443 3026228
2.8312001 0.9952625 1.2219461 3355193
2.8352001 0.99051166 1.2215443 9541790
2.8352001 0.9862898 1.2215443 9148567
2.8392 0.98150814 1.2211424 9477019
2.8352001 0.97784615 1.2215443 9542812
2.8352001 0.97362435 1.2215443 9411226
2.8392 0.96881193 1.2211424 9542812
2.8352001 0.9651807 1.2215443 9608603
2.8352001 0.96095884 1.2215443 9674396
2.8312001 0.95735848 1.2219461 9740189
2.8312001 0.95314693 1.2219461 9740189
2.8262 0.94973779 1.2224483 9608603
2.8262 0.94553912 1.2224483 9608603
2.8262 0.94134039 1.2224483 9608603
2.8262 0.93714166 1.2224483 9542810
2.8262 0.93294287 1.2224483 9411224
2.8262 0.9287442 1.2224483 9411224
2.8262 0.92454547 1.2224483 9213845
2.8262 0.92034674 1.2224483 9148052
2.8262 0.91614801 1.2224483 8884880
2.8262 0.91194928 1.2224483 9080976
2.8262 0.90775061 1.2224483 2500654
2.8262 0.90355182 1.2224483 2698033
2.8262 0.89935309 1.2224483 2896184
2.8262 0.89515436 1.2224483 8753046
2.8262 0.89095569 1.2224483 8884882
2.8312001 0.88576198 1.2219461 9213077
2.8312001 0.88155043 1.2219461 9278870
2.8312001 0.87733889 1.2219461 9344661
2.8312001 0.87312734 1.2219461 9278353
2.8312001 0.8689158 1.2219461 9409939
2.8262 0.86576331 1.2224483 9409939
2.8312001 0.86049259 1.2219461 9278866
2.8312001 0.85628104 1.2219461 9278868
2.8262 0.85316712 1.2224483 9278868
2.8262 0.84896839 1.2224483 9344661
2.8262 0.84476966 1.2224483 9278868
2.8262 0.84057093 1.2224483 9213075
2.8262 0.83637226 1.2224483 9082259
2.8222001 0.83310282 1.2228502 9081489
2.8222001 0.8289144 1.2228502 9015696
2.8222001 0.82472599 1.2228502 8686731
2.8262 0.81957734 1.2224483 2697513
2.8312001 0.81416547 1.2219461 2894637
2.8312001 0.80995393 1.2219461 3157814
2.8352001 0.8047514 1.2215443 3486779
2.8352001 0.80052948 1.2215443 9147032
2.8392 0.79529619 1.2211424 9147030
2.8392 0.79106408 1.2211424 9213075
2.8392 0.78683197 1.2211424 9147282
2.8392 0.78259993 1.2211424 9213075
2.8392 0.77836782 1.2211424 9213075
2.8392 0.77413571 1.2211424 9213075
2.8392 0.76990366 1.2211424 9147282
2.8392 0.76567161 1.2211424 9147282
2.8392 0.76143944 1.2211424 9147282
2.8392 0.75720739 1.2211424 9213075
2.8392 0.75297534 1.2211424 9081489
2.8392 0.74874318 1.2211424 9147282
2.8352001 0.74564576 1.2215443 9081487
2.8352001 0.74142396 1.2215443 8884108
2.8392 0.73604691 1.2211424 8884108
2.8392 0.73181486 1.2211424 8620936
2.8392 0.72758269 1.2211424 7502455
2.8392 0.72335064 1.2211424 2435115
2.8392 0.7191186 1.2211424 2500654
2.8442001 0.71337825 1.2206401 3093561
2.8482001 0.70791644 1.2202382 6909555
2.8532 0.7021274 1.219736 8949390
2.8532 0.69785935 1.219736 8949390
2.8532 0.69359136 1.219736 9015696
2.8532 0.68932331 1.219736 8884110
2.8572001 0.68378717 1.2193341 9015696
2.8622 0.6779108 1.2188318 9015696
2.8622 0.67361969 1.2188318 9015698
2.8442001 1.9104464 1.2163951 10328212
2.8442001 1.9062016 1.2163951 10262932
2.8482001 1.9036245 1.215983 10262932
2.8572001 1.9030988 1.2150558 10328725
2.8572001 1.8988205 1.2150558 10262419
2.8572001 1.8945422 1.2150558 10262934
2.8572001 1.890264 1.2150558 10262934
2.8572001 1.8859856 1.2150558 10394267
2.8532 1.8801012 1.2154679 10525853
2.8532 1.8758332 1.2154679 10328474
2.8482001 1.8695829 1.215983 10394267
2.8442001 1.8637524 1.2163951 10131865
2.8392 1.8575509 1.2169104 10197658
2.8352001 1.851764 1.2173223 10066072
2.8312001 1.8459973 1.2177346 10000532
2.8312001 1.8417859 1.2177346 9934739
2.8312001 1.8375742 1.2177346 9999509
2.8262 1.8314704 1.2182497 3486002
2.8222001 1.8257681 1.2186618 2434345
2.8222001 1.8215796 1.2186618 2500138
2.8222001 1.8173912 1.2186618 4604485
2.8222001 1.8132026 1.2186618 9409422
2.8222001 1.8090142 1.2186618 9672594
2.8182001 1.8033735 1.2190739 10132375
2.8182001 1.7991953 1.2190739 10197911
2.8182001 1.795017 1.2190739 10197911
2.8182001 1.790839 1.2190739 10197911
2.8222001 1.7880719 1.2186618 10263704
2.8222001 1.7838835 1.2186618 10263704
2.8182001 1.7783043 1.2190739 10395290
2.8222001 1.7755065 1.2186618 10461083
2.8222001 1.7713181 1.2186618 10526876
2.8182001 1.7657697 1.2190739 10263704
2.8182001 1.7615916 1.2190739 10197911
2.8141999 1.756074 1.219486 10132118
2.8141999 1.751906 1.219486 10263704
2.8141999 1.7477381 1.219486 10395290
2.8092 1.7419345 1.2200011 10198166
2.8092 1.7377794 1.2200011 10395288
2.8092 1.7336243 1.2200011 10065040
2.8092 1.7294693 1.2200011 9933454
2.8141999 1.7268984 1.219486 2631465
2.8141999 1.7227306 1.219486 2172713
2.8182001 1.7198095 1.2190739 2565420
2.8222001 1.7168682 1.2186618 3091764
2.8222001 1.7126796 1.2186618 9999509
2.8222001 1.7084912 1.2186618 10000532
2.8222001 1.7043028 1.2186618 9870743
2.8222001 1.7001143 1.2186618 10068122
2.8222001 1.6959258 1.2186618 10133915
2.8222001 1.6917374 1.2186618 9936536
2.8182001 1.686384 1.2190739 9607318
2.8141999 1.6810513 1.219486 10199457
2.8141999 1.6768833 1.219486 10199457
2.8141999 1.6727154 1.219486 10264480
2.8092 1.6671427 1.2200011 10067871
2.8092 1.6629877 1.2200011 10198687
2.8092 1.6588326 1.2200011 10198689
2.8052001 1.6535845 1.2204132 10198689
2.8052001 1.6494397 1.2204132 10330273
2.8052001 1.6452949 1.2204132 10396066
2.8052001 1.64115 1.2204132 10199457
2.8052001 1.6370052 1.2204132 10396066
2.8052001 1.6328604 1.2204132 10264480
2.8052001 1.6287155 1.2204132 8684676
2.8052001 1.6245707 1.2204132 2566451
2.8092 1.6214367 1.2200011 2434861
2.8092 1.6172817 1.2200011 2369068
2.8092 1.6131265 1.2200011 3750205
2.8092 1.6089715 1.2200011 10920349
2.8092 1.6048163 1.2200011 10855323
2.8092 1.6006613 1.2200011 11052967
2.8092 1.5965061 1.2200011 11052967
2.8092 1.5923511 1.2200011 11053224
2.8052001 1.5872673 1.2204132 10856615
2.8052001 1.5831225 1.2204132 10856615
2.8052001 1.5789776 1.2204132 10856615
2.8052001 1.5748328 1.2204132 10791594
2.8052001 1.570688 1.2204132 10725801
2.8052001 1.5665431 1.2204132 10660521
2.8092 1.5632653 1.2200011 10660521
2.8092 1.5591103 1.2200011 10726314
2.8092 1.5549552 1.2200011 10594728
2.8141999 1.5518456 1.219486 10660521
2.8092 1.5466449 1.2200011 10725801
2.8092 1.5424899 1.2200011 10791594
2.8052001 1.5375292 1.2204132 10791594
2.8052001 1.5333844 1.2204132 10790822
2.8011999 1.5284545 1.2208253 10725029
2.8011999 1.52432 1.2208253 10790822
2.8011999 1.5201855 1.2208253 10527650
2.7932 1.5104285 1.2216495 6252138
2.7932 1.5063145 1.2216495 3487549
2.7932 1.5022005 1.2216495 3158584
2.7932 1.4980865 1.2216495 2631215
2.7932 1.4939723 1.2216495 10131872
2.7932 1.4898584 1.2216495 10066331
2.7932 1.4857442 1.2216495 10001308
2.7932 1.4816303 1.2216495 10067101
2.7892001 1.4768544 1.2220616 10265250
2.7892001 1.4727507 1.2220616 10265250
2.7852001 1.4680057 1.2224737 10199457
2.7852001 1.4639121 1.2224737 10265250
2.7811999 1.4591979 1.2228858 10199970
2.7811999 1.4551146 1.2228858 10199457
2.7811999 1.4510314 1.2228858 10265250
2.7811999 1.4469482 1.2228858 10265252
2.7852001 1.4434446 1.2224737 10265252
2.7892001 1.4399205 1.2220616 10133666
2.7932 1.4363759 1.2216495 10199459
2.7932 1.4322618 1.2216495 10133666
2.7932 1.4281478 1.2216495 10133666
2.7972002 1.4245622 1.2212374 9871007
2.8011999 1.4209559 1.2208253 10002593
2.8011999 1.4168214 1.2208253 9871007
2.8011999 1.4126868 1.2208253 9871007
2.8052001 1.4090395 1.2204132 9739421
2.8092 1.4053717 1.2200011 3290942
2.8141999 1.4018 1.219486 3092025
2.8141999 1.3976321 1.219486 2894644
2.8092 1.3929064 1.2200011 2894644
2.8092 1.3887513 1.2200011 10066851
2.8092 1.3845962 1.2200011 9804701
2.8052001 1.3800257 1.2204132 10067873
2.8011999 1.3754756 1.2208253 10133666
2.7972002 1.3709463 1.2212374 10133666
2.7972002 1.366822 1.2212374 10133666
2.7932 1.3623233 1.2216495 10067871
2.7932 1.3582093 1.2216495 10067871
2.7892001 1.3537414 1.2220616 10067871
2.7932 1.3499812 1.2216495 10134177
2.7932 1.3458672 1.2216495 10134177
2.8011999 1.3423991 1.2208253 10199972
2.8011999 1.3382646 1.2208253 10265765
2.8052001 1.3344326 1.2204132 10134179
2.8052001 1.3302877 1.2204132 9871777
2.8092 1.3264248 1.2200011 9740191
2.8092 1.3222698 1.2200011 9871777
2.8092 1.3181146 1.2200011 10003363
2.8141999 1.3142735 1.219486 9871007
2.8141999 1.3101056 1.219486 9739419
2.8141999 1.3059376 1.219486 10068384
2.8141999 1.3017697 1.219486 2238767
2.8141999 1.2976018 1.219486 2370353
2.8092 1.293184 1.2200011 2435633
2.8092 1.289029 1.2200011 2828851
2.8092 1.2848738 1.2200011 9934745
2.8052001 1.2805498 1.2204132 10000538
2.8052001 1.276405 1.2204132 10067873
2.8052001 1.2722601 1.2204132 10068386
2.8011999 1.267977 1.2208253 10068386
2.8011999 1.2638425 1.2208253 10003363
2.8011999 1.2597079 1.2208253 10069156
2.8011999 1.2555733 1.2208253 10069156
2.8011999 1.2514387 1.2208253 10134949
2.8011999 1.2473042 1.2208253 10134949
2.8011999 1.2431697 1.2208253 10134949
2.8011999 1.239035 1.2208253 10134949
2.8011999 1.2349005 1.2208253 10003361
2.8052001 1.2308118 1.2204132 10003361
2.8092 1.2267026 1.2200011 10003363
2.8141999 1.2225791 1.219486 10003363
2.8182001 1.2184262 1.2190739 10003363
2.8182001 1.2142481 1.2190739 10068386
2.8182001 1.2100698 1.2190739 10002591
2.8222001 1.2058759 1.2186618 9805212
2.8262 1.2016615 1.2182497 6317668
2.8312001 1.1974174 1.2177346 2434861
2.8262 1.193264 1.2182497 2698033
2.8222001 1.1891221 1.2186618 2435633
2.8141999 1.1850678 1.219486 9212312
2.8141999 1.1808997 1.219486 10067101
2.8092 1.1768414 1.2200011 10068382
2.8052001 1.1727841 1.2204132 9872288
2.8011999 1.1687474 1.2208253 9806495
2.7972002 1.1647313 1.2212374 9806497
2.7932 1.1607357 1.2216495 9938083
2.7932 1.1566216 1.2216495 10003363
2.7932 1.1525075 1.2216495 10134179
2.7932 1.1483935 1.2216495 10068386
2.7932 1.1442795 1.2216495 10068386
2.7972002 1.1399854 1.2212374 10068386
2.7972002 1.1358612 1.2212374 10068386
2.7972002 1.1317369 1.2212374 10068386
2.7972002 1.1276126 1.2212374 10068386
2.8011999 1.1232673 1.2208253 10002593
2.8052001 1.1189014 1.2204132 9871007
2.8092 1.1145149 1.2200011 9607835
2.8141999 1.110045 1.219486 9673628
2.8141999 1.105877 1.219486 2763826
2.8141999 1.1017091 1.219486 2763828
2.8141999 1.0975412 1.219486 3027002
2.8141999 1.0933733 1.219486 4079690
2.8182001 1.0889022 1.2190739 9607833
2.8222001 1.0844105 1.2186618 9871005
2.8182001 1.0805458 1.2190739 9871007
2.8182001 1.0763676 1.2190739 9740191
2.8222001 1.0718452 1.2186618 9871777
2.8222001 1.0676566 1.2186618 9740191
2.8222001 1.0634682 1.2186618 9871007
2.8262 1.0589046 1.2182497 9871007
2.8262 1.054706 1.2182497 9871007
2.8262 1.0505073 1.2182497 9740191
2.8222001 1.0467144 1.2186618 9740191
2.8222001 1.0425259 1.2186618 10134179
2.8222001 1.0383375 1.2186618 10068386
2.8222001 1.0341489 1.2186618 10002593
2.8222001 1.0299605 1.2186618 9739421
2.8222001 1.0257721 1.2186618 9739421
2.8222001 1.0215836 1.2186618 9673628
2.8222001 1.0173951 1.2186618 9542042
2.8262 1.0127187 1.2182497 9147284
2.8312001 1.0078971 1.2177346 4212042
2.8312001 1.0036857 1.2177346 3025971
2.8312001 0.99947405 1.2177346 3091764
2.8312001 0.9952625 1.2177346 3486522
2.8352001 0.99051166 1.2173223 9541790
2.8352001 0.9862898 1.2173223 9082772
2.8352001 0.982068 1.2173223 9477019
2.8352001 0.97784615 1.2173223 9477019
2.8392 0.97304398 1.2169104 9411226
2.8352001 0.96940255 1.2173223 9542812
2.8352001 0.9651807 1.2173223 9674396
2.8352001 0.96095884 1.2173223 9674396
2.8312001 0.95735848 1.2177346 9740189
2.8312001 0.95314693 1.2177346 9674396
2.8262 0.94973779 1.2182497 9608603
2.8262 0.94553912 1.2182497 9608603
2.8262 0.94134039 1.2182497 9608603
2.8262 0.93714166 1.2182497 9542810
2.8262 0.93294287 1.2182497 9345431
2.8262 0.9287442 1.2182497 9213847
2.8262 0.92454547 1.2182497 9148054
2.8222001 0.92106056 1.2186618 9148054
2.8222001 0.91687208 1.2186618 8884880
2.8262 0.91194928 1.2182497 9080976
2.8262 0.90775061 1.2182497 2369068
2.8262 0.90355182 1.2182497 2698033
2.8262 0.89935309 1.2182497 2896182
2.8262 0.89515436 1.2182497 8621460
2.8262 0.89095569 1.2182497 8753296
2.8312001 0.88576198 1.2177346 9213077
2.8312001 0.88155043 1.2177346 9278870
2.8312001 0.87733889 1.2177346 9344661
2.8312001 0.87312734 1.2177346 9409939
2.8312001 0.8689158 1.2177346 9409939
2.8312001 0.86470419 1.2177346 9344146
2.8312001 0.86049259 1.2177346 9344146
2.8312001 0.85628104 1.2177346 9344659
2.8312001 0.8520695 1.2177346 9278868
2.8262 0.84896839 1.2182497 9278868
2.8262 0.84476966 1.2182497 9278868
2.8262 0.84057093 1.2182497 9213075
2.8222001 0.83729136 1.2186618 9278868
2.8222001 0.83310282 1.2186618 9081489
2.8222001 0.8289144 1.2186618 9015696
2.8222001 0.82472599 1.2186618 8752011
2.8262 0.81957734 1.2182497 2565670
2.8312001 0.81416547 1.2177346 2763049
2.8312001 0.80995393 1.2177346 3157814
2.8312001 0.80574238 1.2177346 3486779
2.8352001 0.80052948 1.2173223 8883858
2.8392 0.79529619 1.2169104 8950675
2.8392 0.79106408 1.2169104 9213075
2.8392 0.78683197 1.2169104 9213075
2.8392 0.78259993 1.2169104 9213075
2.8392 0.77836782 1.2169104 9213075
2.8392 0.77413571 1.2169104 9213075
2.8392 0.76990366 1.2169104 9147282
2.8392 0.76567161 1.2169104 9147282
2.8392 0.76143944 1.2169104 9081489
2.8392 0.75720739 1.2169104 9081489
2.8352001 0.75408947 1.2173223 9081489
2.8352001 0.74986768 1.2173223 9147282
2.8312001 0.74678051 1.2177346 9081489
2.8352001 0.74142396 1.2173223 9015696
2.8352001 0.73720217 1.2173223 8884110
2.8352001 0.73298031 1.2173223 8686216
2.8352001 0.72875851 1.2173223 8028286
2.8352001 0.72453666 1.2173223 2500908
2.8352001 0.72031486 1.2173223 2500654
2.8392 0.71488643 1.2169104 2830389
2.8442001 0.70913333 1.2163951 6843762
2.8482001 0.70366126 1.215983 8818319
2.8532 0.69785935 1.2154679 9015696
2.8532 0.69359136 1.2154679 9080974
2.8532 0.68932331 1.2154679 8949388
2.8572001 0.68378717 1.2150558 9080974
2.8622 0.6779108 1.2145407 9080974
2.8662 0.67233098 1.2141286 8949388
2.8442001 1.9104464 1.2121502 10524821
2.8442001 1.9062016 1.2121502 10394007
2.8482001 1.9036245 1.2117279 10394007
2.8532 1.9014413 1.2111999 10459800
2.8572001 1.8988205 1.2107775 10459028
2.8572001 1.8945422 1.2107775 10327444
2.8572001 1.890264 1.2107775 10262421
2.8572001 1.8859856 1.2107775 10394267
2.8572001 1.8817074 1.2107775 10591646
2.8532 1.8758332 1.2111999 10262168
2.8532 1.8715651 1.2111999 10591133
2.8442001 1.8637524 1.2121502 10393754
2.8442001 1.8595073 1.2121502 10262934
2.8392 1.8533188 1.2126782 10262934
2.8352001 1.847542 1.2131006 10394007
2.8352001 1.8433203 1.2131006 10130833
2.8312001 1.8375742 1.2135229 10065555
2.8262 1.8314704 1.2140509 3354669
2.8222001 1.8257681 1.2144732 2565674
2.8222001 1.8215796 1.2144732 2565931
2.8222001 1.8173912 1.2144732 4867659
2.8222001 1.8132026 1.2144732 9606031
2.8222001 1.8090142 1.2144732 9869203
2.8222001 1.8048258 1.2144732 10066582
2.8182001 1.7991953 1.2148957 10132375
2.8182001 1.795017 1.2148957 10197911
2.8182001 1.790839 1.2148957 10263704
2.8222001 1.7880719 1.2144732 10263704
2.8222001 1.7838835 1.2144732 10395290
2.8182001 1.7783043 1.2148957 10461083
2.8182001 1.7741261 1.2148957 10395290
2.8182001 1.769948 1.2148957 10132118
2.8141999 1.7644099 1.2153181 10263704
2.8141999 1.760242 1.2153181 10197911
2.8141999 1.756074 1.2153181 10197911
2.8092 1.7502446 1.2158461 10263704
2.8052001 1.7447708 1.2162683 10263704
2.8092 1.7419345 1.2158461 10263704
2.8092 1.7377794 1.2158461 10263704
2.8092 1.7336243 1.2158461 10065553
2.8092 1.7294693 1.2158461 9802381
2.8092 1.7253141 1.2158461 2565929
2.8141999 1.7227306 1.2153181 2304299
2.8182001 1.7198095 1.2148957 2499884
2.8222001 1.7168682 1.2144732 3289400
2.8222001 1.7126796 1.2144732 9474194
2.8222001 1.7084912 1.2144732 9934743
2.8182001 1.7030969 1.2148957 9936283
2.8182001 1.6989186 1.2148957 10068122
2.8182001 1.6947404 1.2148957 10068122
2.8182001 1.6905622 1.2148957 10001559
2.8141999 1.6852192 1.2153181 9935766
2.8141999 1.6810513 1.2153181 10330271
2.8092 1.6754529 1.2158461 10264478
2.8052001 1.6701639 1.2162683 10264478
2.8052001 1.666019 1.2162683 10198687
2.8052001 1.6618742 1.2162683 10329503
2.8052001 1.6577294 1.2162683 10198687
2.8011999 1.6524916 1.2166908 10264480
2.8011999 1.648357 1.2166908 10330273
2.8011999 1.6442225 1.2166908 10396066
2.8011999 1.6400878 1.2166908 10330273
2.8011999 1.6359533 1.2166908 10330273
2.8011999 1.6318188 1.2166908 10264480
2.8052001 1.6287155 1.2162683 8027518
2.8052001 1.6245707 1.2162683 2238515
2.8092 1.6214367 1.2158461 2238256
2.8092 1.6172817 1.2158461 2172463
2.8092 1.6131265 1.2158461 4277067
2.8092 1.6089715 1.2158461 10789025
2.8141999 1.6060286 1.2153181 10855071
2.8092 1.6006613 1.2158461 10854818
2.8092 1.5965061 1.2158461 11117990
2.8052001 1.5914121 1.2162683 11118760
2.8052001 1.5872673 1.2162683 10987431
2.8052001 1.5831225 1.2162683 11053224
2.8052001 1.5789776 1.2162683 11119017
2.8052001 1.5748328 1.2162683 10987431
2.8052001 1.570688 1.2162683 10922408
2.8052001 1.5665431 1.2162683 10856617
2.8092 1.5632653 1.2158461 10594215
2.8092 1.5591103 1.2158461 10725801
2.8092 1.5549552 1.2158461 10594217
2.8092 1.5508001 1.2158461 10594217
2.8092 1.5466449 1.2158461 10594217
2.8092 1.5424899 1.2158461 10725803
2.8092 1.5383348 1.2158461 10725803
2.8052001 1.5333844 1.2162683 10725801
2.8052001 1.5292397 1.2162683 10725031
2.8011999 1.52432 1.2166908 10790824
2.7972002 1.5194211 1.2171131 10790824
2.7892001 1.5096846 1.2179579 6120552
2.7892001 1.5055808 1.2179579 3290940
2.7892001 1.4973733 1.2179579 2631472
2.7892001 1.4932694 1.2179579 10066076
2.7892001 1.4891658 1.2179579 10066329
2.7892001 1.485062 1.2179579 10198685
2.7892001 1.4809582 1.2179579 10264478
2.7892001 1.4768544 1.2179579 10396064
2.7852001 1.4720991 1.2183802 10330271
2.7811999 1.4673643 1.2188026 10265248
2.7811999 1.4632812 1.2188026 10265248
2.7772002 1.4585772 1.2192249 10199457
2.7772002 1.4545043 1.2192249 10133664
2.7772002 1.4504312 1.2192249 10265252
2.7811999 1.4469482 1.2188026 10265252
2.7852001 1.4434446 1.2183802 10265252
2.7852001 1.4393511 1.2183802 10133666
2.7892001 1.4358168 1.2179579 10199205
2.7932 1.4322618 1.2175355 10133412
2.7932 1.4281478 1.2175355 10133412
2.7972002 1.4245622 1.2171131 10068132
2.8011999 1.4209559 1.2166908 10068132
2.8011999 1.4168214 1.2166908 10133925
2.8011999 1.4126868 1.2166908 10067873
2.8052001 1.4090395 1.2162683 9804701
2.8092 1.4053717 1.2158461 3421758
2.8141999 1.4018 1.2153181 3092025
2.8141999 1.3976321 1.2153181 2894644
2.8092 1.3929064 1.2158461 2894644
2.8092 1.3887513 1.2158461 9869472
2.8092 1.3845962 1.2158461 9870492
2.8052001 1.3800257 1.2162683 9936285
2.8052001 1.3758808 1.2162683 10133666
2.7972002 1.3709463 1.2171131 10133666
2.7932 1.3664373 1.2175355 10133666
2.7932 1.3623233 1.2175355 10133666
2.7892001 1.3578452 1.2179579 10002591
2.7892001 1.3537414 1.2179579 10002591
2.7892001 1.3496376 1.2179579 10068386
2.7932 1.3458672 1.2175355 10134179
2.7972002 1.3420762 1.2171131 10134179
2.8011999 1.3382646 1.2166908 10265765
2.8011999 1.33413 1.2166908 10134179
2.8052001 1.3302877 1.2162683 10134179
2.8052001 1.3261429 1.2162683 10002593
2.8052001 1.3219981 1.2162683 10002593
2.8092 1.3181146 1.2158461 10068386
2.8141999 1.3142735 1.2153181 9871005
2.8141999 1.3101056 1.2153181 9607833
2.8141999 1.3059376 1.2153181 9542040
2.8141999 1.3017697 1.2153181 2172974
2.8141999 1.2976018 1.2153181 2501939
2.8092 1.293184 1.2158461 2304562
2.8092 1.289029 1.2158461 2828853
2.8052001 1.2846946 1.2162683 9738654
2.8052001 1.2805498 1.2162683 9738654
2.8052001 1.276405 1.2162683 10002339
2.8011999 1.2721115 1.2166908 10068132
2.7972002 1.2678388 1.2171131 9937316
2.7972002 1.2637144 1.2171131 9937316
2.7972002 1.2595901 1.2171131 9871523
2.7972002 1.2554659 1.2171131 10003109
2.7972002 1.2513416 1.2171131 9937829
2.7972002 1.2472173 1.2171131 10003622
2.7972002 1.243093 1.2171131 9872036
2.8011999 1.239035 1.2166908 10069669
2.8011999 1.2349005 1.2166908 9872290
2.8052001 1.2308118 1.2162683 9937570
2.8092 1.2267026 1.2158461 10003363
2.8141999 1.2225791 1.2153181 10069156
2.8141999 1.2184112 1.2153181 10003109
2.8182001 1.2142481 1.2148957 10068386
2.8182001 1.2100698 1.2148957 10002593
2.8222001 1.2058759 1.2144732 9805214
2.8262 1.2016615 1.2140509 6909805
2.8312001 1.1974174 1.2135229 2369070
2.8262 1.193264 1.2140509 2698033
2.8222001 1.1891221 1.2144732 2369840
2.8141999 1.1850678 1.2153181 9212312
2.8141999 1.1808997 1.2153181 9936287
2.8141999 1.1767318 1.2153181 9871007
2.8092 1.1726863 1.2158461 10068386
2.8052001 1.1686393 1.2162683 10068386
2.7972002 1.1647313 1.2171131 10068386
2.7972002 1.160607 1.2171131 9871777
2.7972002 1.1564827 1.2171131 9937570
2.7972002 1.1523584 1.2171131 9871777
2.7972002 1.1482341 1.2171131 9871777
2.7972002 1.1441098 1.2171131 9937570
2.7972002 1.1399854 1.2171131 9937570
2.7972002 1.1358612 1.2171131 9937570
2.8011999 1.1315364 1.2166908 9871777
2.8011999 1.1274018 1.2166908 9740191
2.8011999 1.1232673 1.2166908 9739937
2.8092 1.11867 1.2158461 9674144
2.8092 1.1145149 1.2158461 9477019
2.8141999 1.110045 1.2153181 9542812
2.8141999 1.105877 1.2153181 2829619
2.8141999 1.1017091 1.2153181 2894644
2.8141999 1.0975412 1.2153181 3355195
2.8141999 1.0933733 1.2153181 3815746
2.8182001 1.0889022 1.2148957 9673113
2.8222001 1.0844105 1.2144732 9871005
2.8182001 1.0805458 1.2148957 9871005
2.8222001 1.0760336 1.2144732 9740191
2.8222001 1.0718452 1.2144732 9871777
2.8222001 1.0676566 1.2144732 9740191
2.8222001 1.0634682 1.2144732 9740191
2.8262 1.0589046 1.2140509 9740191
2.8262 1.054706 1.2140509 9871777
2.8262 1.0505073 1.2140509 9871777
2.8222001 1.0467144 1.2144732 9740191
2.8222001 1.0425259 1.2144732 10134179
2.8222001 1.0383375 1.2144732 10002593
2.8222001 1.0341489 1.2144732 9871007
2.8222001 1.0299605 1.2144732 9739421
2.8222001 1.0257721 1.2144732 9739421
2.8222001 1.0215836 1.2144732 9739421
2.8222001 1.0173951 1.2144732 9607835
2.8262 1.0127187 1.2140509 9147284
2.8312001 1.0078971 1.2135229 4475214
2.8312001 1.0036857 1.2135229 3026228
2.8312001 0.99947405 1.2135229 3026228
2.8262 0.99592382 1.2140509 3355193
2.8312001 0.99105096 1.2135229 9475995
2.8352001 0.9862898 1.2131006 9082772
2.8352001 0.982068 1.2131006 9477017
2.8392 0.97727609 1.2126782 9477017
2.8392 0.97304398 1.2126782 9477017
2.8352001 0.96940255 1.2131006 9542810
2.8352001 0.9651807 1.2131006 9674396
2.8352001 0.96095884 1.2131006 9674396
2.8352001 0.95673704 1.2131006 9542810
2.8312001 0.95314693 1.2135229 9608603
2.8312001 0.94893539 1.2135229 9542810
2.8262 0.94553912 1.2140509 9477017
2.8262 0.94134039 1.2140509 9542810
2.8312001 0.93630069 1.2135229 9411224
2.8312001 0.93208909 1.2135229 9213845
2.8312001 0.92787755 1.2135229 9213847
2.8262 0.92454547 1.2140509 9213847
2.8262 0.92034674 1.2140509 9148054
2.8262 0.91614801 1.2140509 8884880
2.8222001 0.91268361 1.2144732 8883597
2.8262 0.90775061 1.2140509 2106150
2.8262 0.90355182 1.2140509 2566701
2.8262 0.89935309 1.2140509 2830389
2.8262 0.89515436 1.2140509 8094346
2.8312001 0.88997352 1.2135229 9015698
2.8312001 0.88576198 1.2135229 9409943
2.8312001 0.88155043 1.2135229 9278357
2.8312001 0.87733889 1.2135229 9344150
2.8352001 0.87230057 1.2131006 9344148
2.8312001 0.8689158 1.2135229 9344148
2.8312001 0.86470419 1.2135229 9278355
2.8312001 0.86049259 1.2135229 9278353
2.8312001 0.85628104 1.2135229 9278866
2.8312001 0.8520695 1.2135229 9278868
2.8262 0.84896839 1.2140509 9278355
2.8262 0.84476966 1.2140509 9409941
2.8262 0.84057093 1.2140509 9344148
2.8222001 0.83729136 1.2144732 9278355
2.8222001 0.83310282 1.2144732 9080976
2.8222001 0.8289144 1.2144732 9080976
2.8222001 0.82472599 1.2144732 8423046
2.8262 0.81957734 1.2140509 2499877
2.8312001 0.81416547 1.2135229 2763051
2.8312001 0.80995393 1.2135229 3157816
2.8312001 0.80574238 1.2135229 3355195
2.8352001 0.80052948 1.2131006 8818065
2.8392 0.79529619 1.2126782 8884882
2.8392 0.79106408 1.2126782 9213075
2.8392 0.78683197 1.2126782 9213075
2.8392 0.78259993 1.2126782 9147282
2.8392 0.77836782 1.2126782 9213075
2.8392 0.77413571 1.2126782 9213075
2.8392 0.76990366 1.2126782 9147282
2.8392 0.76567161 1.2126782 9147282
2.8392 0.76143944 1.2126782 9081489
2.8392 0.75720739 1.2126782 9081489
2.8352001 0.75408947 1.2131006 9081489
2.8312001 0.75099212 1.2135229 9081489
2.8312001 0.74678051 1.2135229 9081489
2.8312001 0.74256897 1.2135229 9081489
2.8312001 0.73835742 1.2135229 8884110
2.8262 0.73560274 1.2140509 8751492
2.8312001 0.72993433 1.2135229 8356734
2.8312001 0.72572279 1.2135229 2500908
2.8312001 0.72151119 1.2135229 2500654
2.8352001 0.71609306 1.2131006 2830389
2.8442001 0.70913333 1.2121502 6185832
2.8442001 0.7048884 1.2121502 8686733
2.8482001 0.69940609 1.2117279 8884110
2.8532 0.69359136 1.2111999 8949388
2.8532 0.68932331 1.2111999 8883595
2.8532 0.68505532 1.2111999 9080974
2.8622 0.6779108 1.2102497 9081227
2.8622 0.67361969 1.2102497 8949388
2.8392 1.9083359 1.2084461 10393235
2.8392 1.904104 1.2084461 10524823
2.8442001 1.9019566 1.2079053 10394007
2.8482001 1.8993692 1.2074727 10328214
2.8532 1.8971732 1.2069319 10459028
2.8572001 1.8945422 1.2064993 10327442
2.8572001 1.890264 1.2064993 10196628
2.8572001 1.8859856 1.2064993 10262934
2.8572001 1.8817074 1.2064993 10526106
2.8572001 1.8774291 1.2064993 10196628
2.8532 1.8715651 1.2069319 10590616
2.8482001 1.8653278 1.2074727 10524823
2.8442001 1.8595073 1.2079053 10524823
2.8442001 1.8552625 1.2079053 10459030
2.8392 1.8490868 1.2084461 10459030
2.8392 1.8448546 1.2084461 10130835
2.8352001 1.8390985 1.2088788 9802383
2.8312001 1.8333627 1.2093114 3288876
2.8222001 1.8257681 1.2102848 2565674
2.8222001 1.8215796 1.2102848 2960180
2.8222001 1.8173912 1.2102848 5195857
2.8262 1.8146755 1.2098522 9868693
2.8262 1.8104768 1.2098522 10000279
2.8262 1.806278 1.2098522 10000536
2.8182001 1.7991953 1.2107174 10132122
2.8182001 1.795017 1.2107174 10197658
2.8222001 1.7922604 1.2102848 10263451
2.8222001 1.7880719 1.2102848 10263451
2.8182001 1.7824825 1.2107174 10263451
2.8182001 1.7783043 1.2107174 10395037
2.8141999 1.7727457 1.2111502 10525853
2.8141999 1.7685778 1.2111502 10262681
2.8141999 1.7644099 1.2111502 10263451
2.8141999 1.760242 1.2111502 10197658
2.8092 1.7543998 1.2116909 10263451
2.8052001 1.7489157 1.2121235 10263451
2.8052001 1.7447708 1.2121235 10263704
2.8052001 1.740626 1.2121235 10132118
2.8052001 1.7364812 1.2121235 10197911
2.8052001 1.7323363 1.2121235 9606029
2.8052001 1.7281915 1.2121235 9474443
2.8092 1.7253141 1.2116909 2960685
2.8092 1.721159 1.2116909 2631722
2.8141999 1.7185626 1.2111502 2828849
2.8182001 1.7156314 1.2107174 3157814
2.8182001 1.7114532 1.2107174 9737107
2.8182001 1.707275 1.2107174 10132118
2.8182001 1.7030969 1.2107174 9870490
2.8182001 1.6989186 1.2107174 9936536
2.8141999 1.6935551 1.2111502 10068122
2.8141999 1.6893872 1.2111502 9935766
2.8092 1.6837631 1.2116909 10000789
2.8052001 1.6784534 1.2121235 10395294
2.8052001 1.6743087 1.2121235 10198685
2.8011999 1.6690298 1.2125561 10264478
2.7972002 1.6637715 1.2129889 10264480
2.7972002 1.6596472 1.2129889 10330273
2.7972002 1.6555229 1.2129889 10264480
2.7972002 1.6513987 1.2129889 10330273
2.7972002 1.6472743 1.2129889 10330273
2.7972002 1.6431501 1.2129889 10461859
2.7972002 1.6390257 1.2129889 10264480
2.7972002 1.6349014 1.2129889 10330273
2.8011999 1.6318188 1.2125561 10264480
2.8011999 1.6276842 1.2125561 8093311
2.8052001 1.6245707 1.2121235 1910320
2.8092 1.6214367 1.2116909 2172976
2.8092 1.6172817 1.2116909 2107183
2.8092 1.6131265 1.2116909 4736848
2.8092 1.6089715 1.2116909 10854818
2.8092 1.6048163 1.2116909 10789278
2.8092 1.6006613 1.2116909 10986404
2.8092 1.5965061 1.2116909 11117990
2.8092 1.5923511 1.2116909 10987174
2.8052001 1.5872673 1.2121235 11052967
2.8052001 1.5831225 1.2121235 11053226
2.8052001 1.5789776 1.2121235 11053226
2.8052001 1.5748328 1.2121235 10987433
2.8052001 1.570688 1.2121235 10987433
2.8092 1.5674205 1.2116909 10922410
2.8092 1.5632653 1.2116909 10790824
2.8092 1.5591103 1.2116909 10790824
2.8092 1.5549552 1.2116909 10660008
2.8092 1.5508001 1.2116909 10594217
2.8092 1.5466449 1.2116909 10660010
2.8092 1.5424899 1.2116909 10725803
2.8092 1.5383348 1.2116909 10660010
2.8052001 1.5333844 1.2121235 10790824
2.8052001 1.5292397 1.2121235 10725031
2.8011999 1.52432 1.2125561 10725031
2.7932 1.5104285 1.2134215 6054759
2.7892001 1.5055808 1.2138541 3290940
2.7852001 1.4966601 1.2142867 2499886
2.7892001 1.4932694 1.2138541 10066076
2.7852001 1.4884732 1.2142867 10066329
2.7852001 1.4843796 1.2142867 10067099
2.7852001 1.4802861 1.2142867 10264478
2.7811999 1.4755309 1.2147193 10133664
2.7811999 1.4714476 1.2147193 10068384
2.7772002 1.4667231 1.215152 10199970
2.7772002 1.4626501 1.215152 10134179
2.7772002 1.4585772 1.215152 10199972
2.7722001 1.4537411 1.2156928 10199972
2.7772002 1.4504312 1.215152 10265765
2.7811999 1.4469482 1.2147193 10199972
2.7811999 1.4428649 1.2147193 10199972
2.7852001 1.4393511 1.2142867 10134179
2.7892001 1.4358168 1.2138541 10068386
2.7892001 1.431713 1.2138541 10068132
2.7892001 1.4276092 1.2138541 10068132
2.7932 1.4240338 1.2134215 10133925
2.7972002 1.4204378 1.2129889 10133925
2.8011999 1.4168214 1.2125561 10068132
2.8011999 1.4126868 1.2125561 9804960
2.8052001 1.4090395 1.2121235 9607581
2.8092 1.4053717 1.2116909 3225151
2.8092 1.4012166 1.2116909 3026748
2.8141999 1.3976321 1.2111502 2567219
2.8141999 1.3934642 1.2111502 2567219
2.8092 1.3887513 1.2116909 10067619
2.8092 1.3845962 1.2116909 9870490
2.8052001 1.3800257 1.2121235 10067869
2.8052001 1.3758808 1.2121235 10067873
2.7972002 1.3709463 1.2129889 10067873
2.7932 1.3664373 1.2134215 10002593
2.7932 1.3623233 1.2134215 10002593
2.7932 1.3582093 1.2134215 10134179
2.7892001 1.3537414 1.2138541 10002593
2.7892001 1.3496376 1.2138541 10068386
2.7892001 1.3455338 1.2138541 10134179
2.7972002 1.3420762 1.2129889 10002593
2.7972002 1.3379519 1.2129889 10134179
2.8052001 1.3344326 1.2121235 10134179
2.8052001 1.3302877 1.2121235 10134179
2.8052001 1.3261429 1.2121235 10002593
2.8052001 1.3219981 1.2121235 9805214
2.8092 1.3181146 1.2116909 9805214
2.8141999 1.3142735 1.2111502 9871007
2.8141999 1.3101056 1.2111502 9738906
2.8141999 1.3059376 1.2111502 9477017
2.8141999 1.3017697 1.2111502 2370355
2.8141999 1.2976018 1.2111502 2567734
2.8092 1.293184 1.2116909 2238515
2.8052001 1.2888395 1.2121235 2697013
2.8052001 1.2846946 1.2121235 9738654
2.8052001 1.2805498 1.2121235 9804447
2.8011999 1.2762462 1.2125561 10067619
2.7972002 1.2719631 1.2129889 10068132
2.7972002 1.2678388 1.2129889 10068132
2.7932 1.2635865 1.2134215 9937316
2.7972002 1.2595901 1.2129889 9937316
2.7972002 1.2554659 1.2129889 9937316
2.7972002 1.2513416 1.2129889 9937829
2.7972002 1.2472173 1.2129889 10003622
2.7972002 1.243093 1.2129889 9937829
2.8011999 1.239035 1.2125561 10003622
2.8011999 1.2349005 1.2125561 10003363
2.8052001 1.2308118 1.2121235 9937570
2.8092 1.2267026 1.2116909 10003363
2.8141999 1.2225791 1.2111502 10003363
2.8141999 1.2184112 1.2111502 9937316
2.8141999 1.2142432 1.2111502 9871777
2.8182001 1.2100698 1.2107174 9740191
2.8222001 1.2058759 1.2102848 9674398
2.8312001 1.2016289 1.2093114 7041393
2.8312001 1.1974174 1.2093114 2698035
2.8262 1.193264 1.2098522 2698033
2.8222001 1.1891221 1.2102848 2435633
2.8141999 1.1850678 1.2111502 9080726
2.8141999 1.1808997 1.2111502 9870494
2.8141999 1.1767318 1.2111502 9871007
2.8092 1.1726863 1.2116909 10068386
2.8052001 1.1686393 1.2121235 10068386
2.8011999 1.1646129 1.2125561 10002593
2.7972002 1.160607 1.2129889 10002593
2.7972002 1.1564827 1.2129889 10068386
2.7972002 1.1523584 1.2129889 9871777
2.7972002 1.1482341 1.2129889 9871777
2.7972002 1.1441098 1.2129889 9937570
2.7972002 1.1399854 1.2129889 10134179
2.8011999 1.1356709 1.2125561 10068386
2.8011999 1.1315364 1.2125561 9871777
2.8011999 1.1274018 1.2125561 9871777
2.8011999 1.1232673 1.2125561 9871523
2.8052001 1.1189014 1.2121235 9739937
2.8092 1.1145149 1.2116909 9411224
2.8141999 1.110045 1.2111502 9542810
2.8141999 1.105877 1.2111502 2566701
2.8141999 1.1017091 1.2111502 3026228
2.8141999 1.0975412 1.2111502 3486522
2.8141999 1.0933733 1.2111502 3683901
2.8182001 1.0889022 1.2107174 9738138
2.8182001 1.0847239 1.2107174 9870494
2.8182001 1.0805458 1.2107174 9804960
2.8182001 1.0763676 1.2107174 9870753
2.8222001 1.0718452 1.2102848 9870753
2.8182001 1.0680112 1.2107174 9870753
2.8222001 1.0634682 1.2102848 9870753
2.8222001 1.0592798 1.2102848 9739937
2.8222001 1.0550913 1.2102848 9871523
2.8222001 1.0509028 1.2102848 9871523
2.8182001 1.0471202 1.2107174 9740191
2.8182001 1.042942 1.2107174 9871007
2.8222001 1.0383375 1.2102848 10002593
2.8222001 1.0341489 1.2102848 9871007
2.8222001 1.0299605 1.2102848 9607835
2.8222001 1.0257721 1.2102848 9607835
2.8222001 1.0215836 1.2102848 9673628
2.8222001 1.0173951 1.2102848 9607835
2.8222001 1.0132067 1.2102848 9147284
2.8262 1.00852 1.2098522 5133911
2.8312001 1.0036857 1.2093114 2566449
2.8312001 0.99947405 1.2093114 2895414
2.8262 0.99592382 1.2098522 3158586
2.8312001 0.99105096 1.2093114 9212310
2.8352001 0.9862898 1.2088788 9082772
2.8352001 0.982068 1.2088788 9542810
2.8392 0.97727609 1.2084461 9542810
2.8392 0.97304398 1.2084461 9542810
2.8392 0.96881193 1.2084461 9542810
2.8392 0.96457982 1.2084461 9542810
2.8392 0.96034771 1.2084461 9674396
2.8352001 0.95673704 1.2088788 9542810
2.8352001 0.95251524 1.2088788 9542810
2.8352001 0.94829339 1.2088788 9477017
2.8312001 0.94472384 1.2093114 9411224
2.8312001 0.9405123 1.2093114 9477017
2.8352001 0.93562794 1.2088788 9411224
2.8352001 0.93140608 1.2088788 9344661
2.8312001 0.92787755 1.2093114 9344663
2.8312001 0.923666 1.2093114 9213847
2.8262 0.92034674 1.2098522 9148054
2.8222001 0.91687208 1.2102848 9015696
2.8222001 0.91268361 1.2102848 8751239
2.8262 0.90775061 1.2098522 2040357
2.8262 0.90355182 1.2098522 2566701
2.8262 0.89935309 1.2098522 2698803
2.8262 0.89515436 1.2098522 7305598
2.8312001 0.88997352 1.2093114 9146771
2.8312001 0.88576198 1.2093114 9278357
2.8352001 0.88074422 1.2088788 9278357
2.8352001 0.87652242 1.2088788 9344148
2.8352001 0.87230057 1.2088788 9344148
2.8352001 0.86807871 1.2088788 9212560
2.8312001 0.86470419 1.2093114 9212560
2.8312001 0.86049259 1.2093114 9212560
2.8312001 0.85628104 1.2093114 9278353
2.8312001 0.8520695 1.2093114 9278355
2.8262 0.84896839 1.2098522 9212562
2.8262 0.84476966 1.2098522 9278355
2.8262 0.84057093 1.2098522 9278357
2.8222001 0.83729136 1.2102848 9212562
2.8222001 0.83310282 1.2102848 9080976
2.8222001 0.8289144 1.2102848 8949390
2.8222001 0.82472599 1.2102848 8620425
2.8262 0.81957734 1.2098522 2368548
2.8312001 0.81416547 1.2093114 2763053
2.8312001 0.80995393 1.2093114 3157816
2.8312001 0.80574238 1.2093114 3289402
2.8352001 0.80052948 1.2088788 8685966
