# .PCD v0.7 - Point Cloud Data file format
VERSION 0.7
FIELDS x y z
SIZE 4 4 4
TYPE F F F
COUNT 1 1 1
WIDTH 1501
HEIGHT 1
VIEWPOINT 0 0 0 1 0 0 0
POINTS 1501
DATA ascii
1.8851552 -0.92161578 1.3297774
1.882817 -0.95223039 1.3296325
1.875937 -0.98245949 1.3296984
1.871384 -1.0097324 1.3313857
1.8683515 -1.0317707 1.3415595
1.8927799 -0.90376753 1.3019078
1.8908579 -0.92132348 1.299431
1.8907962 -0.95254838 1.2988604
1.8799163 -0.98304206 1.2995756
1.8700985 -1.006408 1.3013645
1.8677801 -1.7259266 1.3022544
1.8927801 -0.90497118 1.2706124
1.8896391 -0.92137945 1.270583
1.8822383 -0.95223582 1.2705183
1.8755612 -0.98277432 1.2704365
1.8713839 -1.0102226 1.2693316
1.8677801 -1.027198 1.2614657
1.88948 -0.89965898 1.2357613
1.8816963 -0.92180419 1.2400565
1.8744469 -0.95249277 1.240118
1.8697631 -0.98018676 1.2415992
1.8677801 -1.0079858 1.2528942
1.8892628 -0.89972997 1.2119998
1.8790916 -0.9219501 1.2096598
1.8787795 -0.95236242 1.209664
1.8725034 -0.9792043 1.209005
1.8927801 -0.87608314 1.1676986
1.8921438 -0.89724857 1.1761637
1.8880453 -0.92146409 1.1805793
1.8794259 -0.9526341 1.179636
1.8699342 -0.97907746 1.1801256
1.8927801 -0.87427765 1.1351995
1.8912566 -0.89363396 1.1500371
1.8819464 -0.92178237 1.1504701
1.8728234 -0.95146614 1.1498178
1.8682371 -0.97804117 1.1492454
1.8677801 -0.99882317 1.162154
1.8886749 -0.86951178 1.1186866
1.8871554 -0.89275914 1.1194936
1.8834049 -0.92170763 1.1198452
1.8750782 -0.95293206 1.1196201
1.8698248 -0.97948021 1.1230245
1.8927801 -0.8423804 1.0786271
1.8924879 -0.86677325 1.0878477
1.8884816 -0.89304209 1.0898476
1.8808211 -0.92184865 1.089692
1.8721133 -0.94502133 1.0950263
1.8927801 -0.84177858 1.0738124
1.8927801 -0.86163908 1.0738124
1.8879565 -0.89546341 1.061165
1.8787172 -0.92197067 1.0595248
1.8724799 -0.94863939 1.0557724
1.8677801 -0.97298181 1.0481483
1.8927798 -0.87247211 1.0250638
1.8914348 -0.89336252 1.027773
1.8826604 -0.92215186 1.0295861
1.8742797 -0.95076084 1.0319239
1.8677801 -0.97186708 1.0387237
1.8927801 -0.84358406 0.99617577
1.8912318 -0.86416537 0.99769264
1.8864465 -0.89279503 0.99915999
1.8770406 -0.9216603 1.0002514
1.8687805 -0.94919556 0.9980495
1.8677801 -0.97044837 0.9883585
1.8927802 -0.83778065 0.97334903
1.8866533 -0.86139983 0.9704423
1.8817064 -0.89220834 0.96954393
1.8765335 -0.92227429 0.97034931
1.8704057 -0.95045823 0.97264153
1.8677801 -0.97177845 0.977718
1.8888094 -0.86952847 0.94173217
1.8794043 -0.89331257 0.93963134
1.8726625 -0.92172062 0.94158852
1.8681134 -0.94205952 0.94040281
1.8927801 -0.8423804 0.90108585
1.8867801 -0.86334622 0.90908599
1.8786749 -0.89264858 0.90899932
1.8712652 -0.92242551 0.90994787
1.8695662 -0.95018578 0.90936446
1.8694229 -0.97776908 0.90053189
1.8927801 -0.84177858 0.89326203
1.8875697 -0.86563134 0.88295305
1.8753879 -0.89303374 0.8807708
1.8709302 -0.92167759 0.88090718
1.873489 -0.95276713 0.88078856
1.8739505 -0.97880834 0.88143313
1.8923513 -0.87431443 0.85005051
1.8807797 -0.89327443 0.84912062
1.868871 -0.91556561 0.85207677
1.8894469 -0.87116182 0.81901109
1.8744986 -0.89266145 0.82016605
1.8681437 -0.91238624 0.8279953
1.8904799 -0.83169383 0.78041828
1.8881986 -0.86442435 0.7858789
1.8762552 -0.89351416 0.79020441
1.8700528 -0.91936874 0.78444397
1.8677801 -0.93852675 0.77554774
1.8872539 -0.80830342 0.75498933
1.8808619 -0.83217502 0.7605384
1.8847535 -0.86208069 0.76023954
1.8789207 -0.8935163 0.75981516
1.871114 -0.92132556 0.76320839
1.8677801 -0.93985683 0.76623726
1.8886061 -0.80505002 0.73701549
1.8851329 -0.83279735 0.73091859
1.8875206 -0.86247528 0.72914064
1.8759706 -0.89267242 0.73114407
1.89203 -0.83824933 0.71300066
1.88978 -0.84751433 0.71386766
1.9161969 -0.92575693 1.828573
1.9044943 -0.9515329 1.8260068
1.9166821 -0.92686617 1.8100295
1.9050877 -0.95351791 1.8101046
1.8978908 -0.97389531 1.8108649
1.9227799 -0.90669847 1.7706718
1.912423 -0.92255735 1.7799666
1.900334 -0.95188433 1.7789319
1.8970529 -0.97317952 1.7877796
1.9227802 -0.90301043 1.7490048
1.9126658 -0.92310709 1.7496122
1.9004967 -0.95279509 1.7500441
1.89678 -0.96989268 1.7450439
1.89678 -1.0405076 1.7414225
1.92278 -0.87350643 1.7098199
1.9209801 -0.89317745 1.7169914
1.9125261 -0.92207873 1.7204977
1.8999799 -0.94933432 1.7220786
1.89678 -1.7394133 1.7196949
1.9227802 -0.87245274 1.6984925
1.916435 -0.89188582 1.6910322
1.9034783 -0.91777503 1.6884278
1.897637 -0.94192201 1.7021196
1.8987801 -1.7422788 1.678645
1.9202086 -0.87162137 1.6514213
1.9170485 -0.89249974 1.6594205
1.9114419 -0.92169964 1.6609768
1.8988326 -0.94179195 1.6609123
1.9033356 -1.7406423 1.6561512
1.9140657 -1.7498177 1.6601744
1.9194725 -0.87237364 1.6336138
1.9045737 -0.89077562 1.6287122
1.9003354 -0.9184888 1.6336455
1.8972086 -0.94400835 1.6256589
1.9034467 -1.7369844 1.6288656
1.9191135 -1.7505513 1.6320146
1.92278 -0.87350643 1.6047119
1.9057801 -0.89127594 1.5996273
1.8967797 -0.92071342 1.6027044
1.8987955 -0.95112652 1.601203
1.89678 -0.96989268 1.6056248
1.9022417 -1.7374001 1.603066
1.9165801 -1.7502003 1.6068792
1.9120657 -0.89646125 1.5727923
1.9002982 -0.91361618 1.5662817
1.89678 -0.94671655 1.5831729
1.9153484 -0.89275259 1.5388808
1.9005802 -0.91329014 1.5403703
1.9208359 -0.86609882 1.5015266
1.9108108 -0.89103436 1.509691
1.89678 -0.90833104 1.5205249
1.9227802 -0.84400243 1.4848518
1.916077 -0.86121786 1.4801114
1.9050968 -0.89084262 1.4800239
1.8967801 -0.92850673 1.4731897
1.8967801 -0.94011778 1.4720401
1.9227799 -0.84277308 1.4362931
1.9166369 -0.86279774 1.4498365
1.9008496 -0.88694823 1.4491228
1.8967801 -0.93186933 1.4607739
1.8967801 -0.93971539 1.4619809
1.9206135 -0.84023982 1.4173024
1.9092722 -0.8620593 1.4203916
1.8992803 -0.8911131 1.4197882
1.8967799 -0.90833104 1.4209399
1.9220845 -0.83894575 1.3862513
1.9113218 -0.86165911 1.389713
1.8995495 -0.88951594 1.3890268
1.9213514 -0.83274758 1.3637389
1.9160753 -0.86178601 1.3595356
1.9012305 -0.88938487 1.3605491
1.91778 -0.83456153 1.3272192
1.9130499 -0.86170894 1.3292657
1.9015727 -0.889229 1.3284037
1.9161279 -0.83575785 1.3013469
1.9071077 -0.86207324 1.299949
1.9011648 -0.88904291 1.2992078
1.8967801 -0.94816506 1.3032485
1.9227802 -0.81311542 1.2640327
1.9162885 -0.83266711 1.2699171
1.9081087 -0.86197817 1.2707784
1.9008514 -0.88990027 1.2707016
1.92278 -0.81449842 1.2303797
1.9159349 -0.83204496 1.2396314
1.9109752 -0.86171085 1.2397319
1.90078 -0.88662344 1.2428591
1.92278 -0.81376082 1.2204221
1.9147799 -0.83343077 1.2101308
1.907061 -0.86208487 1.2087575
1.9019227 -0.88566965 1.2066962
1.9189469 -0.84072667 1.1789494
1.9080659 -0.86176562 1.1797351
1.8989089 -0.88666487 1.1845212
1.9167384 -0.83468676 1.1476357
1.9060305 -0.86215639 1.1504803
1.8967801 -0.88091284 1.1467577
1.9222087 -0.81404412 1.1147934
1.908633 -0.8331238 1.1201098
1.89903 -0.8553676 1.1222054
1.9186729 -0.80989075 1.0857294
1.9051998 -0.83162838 1.0906824
1.8973566 -0.85590255 1.0920368
1.9224468 -0.78289223 1.0555533
1.9139034 -0.80268788 1.0595957
1.8995383 -0.83306003 1.0597128
1.8983524 -0.86272007 1.0602015
1.8974228 -0.88189393 1.055616
1.9194905 -0.77927816 1.0286541
1.9128883 -0.80238628 1.0298243
1.9011533 -0.83365315 1.0302913
1.897169 -0.86001199 1.0315945
1.8967801 -0.88370639 1.0410683
1.9150249 -0.77459145 1.000139
1.9013245 -0.80160964 0.99980164
1.8975421 -0.82954419 1.001282
1.8967801 -0.8533535 1.0061395
1.9169413 -0.77873659 0.97294378
1.903898 -0.80231822 0.97045481
1.8976369 -0.82524687 0.96830797
1.9179468 -0.80448031 0.94968402
1.9097602 -0.83404231 0.9407565
1.9005299 -0.85596007 0.93665022
1.9176801 -0.81293744 0.90047079
1.9070753 -0.8321408 0.91079038
1.8984468 -0.85424376 0.92161822
1.9172672 -0.80708313 0.88093573
1.9051982 -0.83220828 0.87905979
1.8996131 -0.8553344 0.87295592
1.920096 -0.81212479 0.84789467
1.9109471 -0.83244038 0.84837794
1.9012417 -0.85962385 0.84924763
1.9123937 -0.80564451 0.81883705
1.9020404 -0.83153105 0.81938481
1.9012414 -0.85699773 0.82084721
1.9195025 -0.78261226 0.78602743
1.9056189 -0.80201304 0.79082966
1.8987044 -0.83248073 0.79500246
1.9006798 -0.85451955 0.79573613
1.92278 -0.75549042 0.74540758
1.9156134 -0.77747834 0.75574815
1.903155 -0.79688281 0.76247913
1.9195025 -0.75337988 0.72837782
1.9077426 -0.77259403 0.73152596
1.9003799 -0.79918593 0.72342801
1.89678 -0.81960988 0.71841288
1.92278 -0.75364637 0.71037155
1.9174303 -0.77144337 0.7098242
1.9080299 -0.80060762 0.70934528
1.8976372 -0.82234633 0.71239311
1.9498315 -0.83388346 1.8351023
1.9398795 -0.86270016 1.8327868
1.9356238 -0.89203894 1.8328395
1.9272801 -0.91196328 1.8314799
1.9516375 -0.80850387 1.8027091
1.950895 -0.83145481 1.809612
1.947221 -0.86240721 1.8103096
1.9359372 -0.89260793 1.809299
1.9264724 -0.91158551 1.8129573
1.9510185 -0.80535746 1.7872517
1.9515803 -0.83136284 1.7795728
1.9473541 -0.86200517 1.7795093
1.9350063 -0.89250046 1.7800527
1.9475491 -0.83384532 1.749404
1.9370631 -0.8626976 1.7492273
1.9274942 -0.8893044 1.7499008
1.9480774 -0.80528581 1.7155499
1.9388356 -0.83337533 1.7200985
1.9316623 -0.86181623 1.7205395
1.9259382 -0.88665724 1.7274525
1.9493253 -0.80710733 1.6913191
1.9419206 -0.83232546 1.6901177
1.9326371 -0.86071193 1.6885867
1.9257802 -0.88322717 1.6793562
1.9523187 -0.80987835 1.6674905
1.9499599 -0.83204496 1.6598668
1.9350628 -0.85956806 1.6615511
1.9257801 -0.87817639 1.670733
1.9257801 -1.7565212 1.6553342
1.9472591 -0.8357594 1.6294228
1.9335461 -0.85904288 1.6285903
1.9301134 -1.7588069 1.6268958
1.9496469 -0.78102684 1.5949779
1.9446496 -0.80220032 1.5973616
1.9464351 -0.83321339 1.5993599
1.9388324 -0.85993063 1.5984588
1.9257801 -0.87694448 1.5869637
1.9257801 -1.7565212 1.6128336
1.9492803 -0.78193593 1.5708559
1.9409418 -0.8029542 1.5685147
1.9468646 -0.83189636 1.569098
1.9458455 -0.8629545 1.5702068
1.9292089 -0.88476646 1.5672913
1.9527805 -0.74793988 1.5399425
1.9526225 -0.76454484 1.5428271
1.9506757 -0.80358773 1.5406302
1.9486016 -0.83186507 1.5396833
1.9362415 -0.86136961 1.5396352
1.9261135 -0.87897074 1.5435057
1.9421985 -0.80461931 1.5110378
1.9323199 -0.83103013 1.509413
1.9290231 -0.85954589 1.5139365
1.9434465 -0.80611396 1.4793016
1.9302243 -0.83097398 1.4784904
1.9257801 -0.84737885 1.4650056
1.9527801 -0.78433484 1.4448495
1.9380207 -0.80169141 1.4495414
1.9278296 -0.82993448 1.4492309
1.9257801 -0.84876478 1.4553044
1.9507802 -0.78230894 1.4160209
1.9380835 -0.80134547 1.4202156
1.9276552 -0.82516158 1.4195758
1.9495136 -0.77941692 1.3905813
1.9353871 -0.8017168 1.3901438
1.9278531 -0.82612514 1.3909318
1.9517801 -0.75145286 1.3525842
1.9490633 -0.77253157 1.360687
1.9357266 -0.80166489 1.3603922
1.9261894 -0.82784188 1.3513052
1.9257801 -0.84861076 1.347975
1.9524471 -0.75155127 1.3338035
1.9518614 -0.76918769 1.33182
1.9435655 -0.80059934 1.3310409
1.9265698 -0.82374531 1.336091
1.9257801 -0.84737885 1.3430475
1.9527801 -0.75421488 1.3108157
1.9503638 -0.77333164 1.3045337
1.9410657 -0.80094457 1.3010335
1.9281137 -0.82039917 1.297738
1.9504946 -0.78108221 1.268845
1.9354049 -0.80007911 1.2722638
1.92638 -0.82069522 1.2824501
1.9485801 -0.77616894 1.240577
1.9313169 -0.80185086 1.2417748
1.9257801 -0.81781328 1.2432636
1.9484028 -0.7743274 1.2106413
1.9333286 -0.80097765 1.2107748
1.9278911 -0.8216604 1.1980082
1.9519802 -0.75183725 1.1775782
1.9450924 -0.77232736 1.1813134
1.9403359 -0.80271912 1.1809229
1.930083 -0.82625556 1.1787559
1.9520301 -0.75151527 1.1630861
1.9497801 -0.77617776 1.1552496
1.9389865 -0.80199915 1.1507041
1.9277087 -0.82232869 1.1544368
1.9479363 -0.77951586 1.119024
1.9342506 -0.80004406 1.1200199
1.9489092 -0.74382013 1.0824668
1.9403608 -0.77293128 1.089514
1.9288657 -0.79678911 1.0912918
1.9527801 -0.72409493 1.062326
1.9428815 -0.74106002 1.0603974
1.9302413 -0.76841009 1.0609387
1.9257801 -0.78824764 1.0732613
1.9440528 -0.74287617 1.0306419
1.9291135 -0.76355565 1.0319707
1.9521801 -0.72119451 0.98864162
1.9432898 -0.7423358 0.99860203
1.9284469 -0.75978202 1.0041246
1.9503977 -0.71338856 0.97065365
1.9398693 -0.74147159 0.96966112
1.9300658 -0.76405454 0.96693981
1.9507369 -0.72022128 0.94325978
1.9421133 -0.74313539 0.9398849
1.9376081 -0.77232754 0.93851197
1.9318104 -0.80030191 0.93494964
1.92653 -0.82049179 0.92895937
1.9521028 -0.7162056 0.91054726
1.9488959 -0.74105674 0.91428471
1.9471253 -0.77307183 0.9092927
1.9361197 -0.80063826 0.91037381
1.9290658 -0.81899065 0.91992414
1.9445091 -0.77357423 0.88083112
1.9289109 -0.79213858 0.8796345
1.9466035 -0.74707019 0.83841872
1.9438123 -0.77336448 0.84835488
1.9308826 -0.79909813 0.84895098
1.9495136 -0.68988645 0.81156963
1.9464346 -0.7133404 0.8158294
1.9354684 -0.74211776 0.82118642
1.9343058 -0.77146572 0.82007605
1.9293358 -0.79225731 0.82191914
1.9482112 -0.68415725 0.78981555
1.9433695 -0.71275294 0.79046583
1.9397801 -0.74150282 0.79000366
1.9317176 -0.76781213 0.79094887
1.9527801 -0.69020998 0.77242136
1.9516804 -0.71790212 0.76263082
1.9411767 -0.74116862 0.75919044
1.9300743 -0.76406825 0.76278448
1.9473635 -0.72134465 0.73106408
1.93243 -0.73900127 0.73215401
1.9474621 -0.71978796 0.70358074
1.9321135 -0.73967206 0.70714861
1.978905 -0.74460781 1.8583549
1.9667801 -0.75950044 1.8548818
1.9801331 -0.74764943 1.8418896
1.967012 -0.77217281 1.8391874
1.9597797 -0.80149961 1.8393006
1.95678 -0.81857151 1.8390852
1.9844726 -0.72263819 1.8034682
1.9805459 -0.74234462 1.8096154
1.9706347 -0.77153999 1.8106539
1.959006 -0.79818344 1.8131907
1.9567801 -0.83660883 1.8055273
1.9567801 -0.8545413 1.7979769
1.9847801 -0.72455537 1.7916436
1.9791529 -0.74337208 1.7817309
1.9663115 -0.77197051 1.7776775
1.9591883 -0.79883462 1.7760121
1.95678 -0.82905829 1.7812579
1.9567801 -0.8479346 1.7942016
1.9788446 -0.74741834 1.7492592
1.9698159 -0.77233994 1.7494752
1.9652896 -0.80148929 1.7506809
1.95678 -0.81867635 1.7536175
1.9830024 -0.66019166 1.7158642
1.9807805 -0.68187255 1.7179245
1.9813209 -0.71195418 1.7139946
1.9790064 -0.74305725 1.7193291
1.9648983 -0.77117562 1.7193847
1.9586552 -0.79411626 1.7247274
1.9810581 -0.68621016 1.6927667
1.9751587 -0.71163356 1.6897572
1.9779832 -0.74096912 1.690572
1.9676527 -0.77129924 1.6896232
1.9574053 -0.79200327 1.6875758
1.9847803 -0.69249606 1.6562248
1.9780657 -0.71171468 1.6600258
1.9714364 -0.7415899 1.6604131
1.9650204 -0.77102059 1.6592174
1.95858 -0.79853374 1.658708
1.9567801 -0.81773257 1.648854
1.9847801 -0.69313723 1.6428883
1.9800109 -0.71597254 1.6325952
1.9682724 -0.7423985 1.6291823
1.9648141 -0.77338195 1.6313515
1.9616745 -0.80171716 1.6309938
1.9580927 -0.81946027 1.6303108
1.984247 -0.72388244 1.5965964
1.9762976 -0.74265558 1.599966
1.9612193 -0.76804554 1.6017776
1.957155 -0.8006953 1.6130803
1.9567801 -0.81962013 1.6129891
1.98378 -0.69237685 1.559011
1.9782395 -0.71355593 1.5676067
1.9685156 -0.7427699 1.569633
1.959692 -0.76763844 1.5685365
1.9567801 -0.85045147 1.5702027
1.9806689 -0.66306114 1.5322734
1.9757409 -0.68270624 1.5380716
1.9658754 -0.71217805 1.5376587
1.9581648 -0.73849899 1.5387145
1.9586912 -0.77339739 1.5378386
1.95678 -0.78924644 1.5347382
1.9794947 -0.66198438 1.5109847
1.979107 -0.68169272 1.5118319
1.9811304 -0.71297365 1.5140347
1.9788646 -0.74093688 1.5131114
1.9742802 -0.77228528 1.5116056
1.9586892 -0.7903496 1.5086417
1.9822087 -0.68583524 1.471599
1.981685 -0.71317291 1.4787209
1.9815911 -0.74230099 1.4793133
1.9738761 -0.77111197 1.4799668
1.9580659 -0.79112488 1.4818641
1.9847801 -0.61619478 1.4351437
1.9823635 -0.68482208 1.4499648
1.9793913 -0.71140504 1.4498225
1.9766313 -0.74119312 1.4491265
1.96716 -0.76990825 1.4502133
1.9847801 -0.60465342 1.429373
1.9847801 -0.61330944 1.4303348
1.9847803 -0.65988708 1.4184729
1.9845804 -0.68202436 1.4168485
1.9772803 -0.71221697 1.420351
1.9662646 -0.74248004 1.4196308
1.9618531 -0.76832098 1.420386
1.9847801 -0.66300142 1.4030843
1.9846752 -0.6844517 1.3959532
1.9816637 -0.71407348 1.3933336
1.96793 -0.7430554 1.3898765
1.9574621 -0.76459837 1.3896275
1.9841133 -0.69263029 1.3491838
1.9787052 -0.71428257 1.3565539
1.9640592 -0.73891854 1.3604071
1.9567801 -0.75732839 1.3694847
1.9818059 -0.68757606 1.3270825
1.9736371 -0.71256447 1.3287855
1.9601587 -0.73743886 1.3279625
1.9567802 -0.77746308 1.3305995
1.9803383 -0.65304142 1.2973408
1.9802729 -0.68222779 1.2984209
1.9786376 -0.71161914 1.2983843
1.9674177 -0.74049389 1.2984966
1.9584945 -0.76595676 1.2921319
1.978212 -0.65415263 1.2726781
1.9798967 -0.68154967 1.2704926
1.9761064 -0.71210206 1.2696426
1.972573 -0.7417798 1.2701341
1.9620087 -0.76696581 1.2728552
1.9816804 -0.6576755 1.2328376
1.9765764 -0.68181831 1.2405325
1.9673896 -0.71186435 1.2410454
1.9634027 -0.74231553 1.2415459
1.9576373 -0.76096678 1.2411239
1.9847801 -0.63350677 1.2120106
1.9794465 -0.65341222 1.2111481
1.9744112 -0.68212831 1.2101469
1.9681934 -0.71192217 1.210776
1.9621012 -0.7412948 1.2107577
1.95678 -0.758358 1.2134978
1.9838912 -0.65949434 1.1812743
1.9795616 -0.68269157 1.1795776
1.9708693 -0.71308875 1.1800227
1.9597069 -0.73848295 1.1818261
1.9847801 -0.66428381 1.161998
1.9789802 -0.6840409 1.150257
1.9717478 -0.71145308 1.149814
1.9647804 -0.7415694 1.1485622
1.9598635 -0.76612163 1.1452491
1.9813687 -0.6527226 1.1127716
1.9743761 -0.68289626 1.1174866
1.9714626 -0.71130961 1.1187869
1.9710456 -0.74164742 1.1190219
1.9604602 -0.76489913 1.1220324
1.9847803 -0.63008714 1.0871929
1.9812584 -0.64978004 1.0926228
1.9742924 -0.68310535 1.0926447
1.9650297 -0.71238256 1.0910807
1.9609861 -0.74049795 1.0963347
1.9567801 -0.7598452 1.0995536
1.9847801 -0.62965971 1.0735142
1.9824051 -0.6912123 1.049315
1.9690411 -0.71085799 1.0598837
1.9847803 -0.6554904 1.0202041
1.9816451 -0.68241012 1.0289904
1.9676231 -0.71206164 1.029507
1.95678 -0.72874427 1.0278236
1.9847801 -0.60657698 0.99849534
1.9837804 -0.62461638 0.99713039
1.9795105 -0.65181553 0.99962509
1.9739207 -0.68249512 0.99920213
1.963298 -0.71061659 1.0008411
1.9567801 -0.72901392 1.005172
1.98478 -0.6313085 0.97733617
1.9787996 -0.65214479 0.9700973
1.962938 -0.68273908 0.97060597
1.9567801 -0.70069945 0.96930707
1.9836375 -0.65849268 0.94761795
1.9737135 -0.68292475 0.94076037
1.9596469 -0.70679742 0.93760329
1.9737356 -0.68512499 0.90803719
1.9595046 -0.70770895 0.90899813
1.9579052 -0.74085224 0.89824712
1.9567801 -0.75858676 0.89694786
1.9779176 -0.68133461 0.87909591
1.9713042 -0.71194434 0.88003755
1.9658246 -0.74140614 0.87979281
1.95678 -0.75883847 0.88172102
1.9833004 -0.6257118 0.84171313
1.9778363 -0.65296185 0.84779489
1.9811573 -0.68029428 0.84775198
1.9764907 -0.71476102 0.84288311
1.9676527 -0.74116063 0.85109293
1.9567801 -0.76015979 0.85604924
1.9847801 -0.6056152 0.82729852
1.9817394 -0.62388784 0.82001996
1.9733659 -0.65199339 0.82094622
1.9646103 -0.68034023 0.82349688
1.9604468 -0.70878768 0.82973993
1.9847801 -0.60657698 0.78498012
1.9782262 -0.62379158 0.79060614
1.96628 -0.65329337 0.79044032
1.9577801 -0.67090464 0.79533803
1.9847801 -0.60657698 0.77151525
1.980859 -0.62495446 0.76277536
1.9704601 -0.65220749 0.7584337
1.9661375 -0.68162841 0.75796592
1.9602802 -0.70885456 0.75717628
1.9832801 -0.60120183 0.72088695
1.9797601 -0.62406296 0.72691137
1.979195 -0.65142512 0.72981006
1.97998 -0.68152636 0.72980899
1.9642317 -0.70493543 0.73023057
1.98318 -0.57471067 0.68863887
1.9762344 -0.59481764 0.69809848
1.9784071 -0.62097991 0.69996667
1.982934 -0.6457783 0.70545828
1.9765247 -0.68425632 0.6975643
1.962088 -0.70428371 0.70365006
1.9827801 -0.57443833 0.68187332
1.9817801 -0.61888576 0.6822561
1.9797801 -0.66155648 0.68302166
1.9777801 -0.66966641 0.68378723
2.0120959 -0.65904176 1.8652015
2.0064554 -0.68204707 1.8634651
2.0050831 -0.70986593 1.8630711
1.99178 -0.73036599 1.8611434
2.0123253 -0.66137314 1.8439482
2.0049229 -0.68271613 1.839069
2.0005298 -0.71176028 1.8400311
1.9915193 -0.73284459 1.839201
2.0130301 -0.66168797 1.8060083
2.0039096 -0.68339276 1.809669
1.991195 -0.70950067 1.810776
1.9877801 -0.73107743 1.822914
2.0109887 -0.65736943 1.7794826
2.0061378 -0.68294811 1.7796843
1.9959433 -0.71182239 1.7797961
1.9882799 -0.73147023 1.7715263
2.01178 -0.63185513 1.7389768
2.0065179 -0.65247577 1.750567
2.0002904 -0.68251067 1.7502179
1.9974072 -0.71182829 1.7509893
1.9902152 -0.73274243 1.7520725
2.0080109 -0.62756348 1.718318
1.992655 -0.64838409 1.7190144
1.9877801 -0.68481958 1.7323257
1.9899803 -0.71254039 1.7297463
1.9877801 -0.72915006 1.7323257
2.0107801 -0.63160509 1.6958392
2.0015936 -0.65169811 1.6905954
1.9912802 -0.67491341 1.6856121
2.0137801 -0.63301182 1.6647737
2.0050163 -0.65196663 1.6598207
1.9915431 -0.67883891 1.661725
2.0078273 -0.65450346 1.6303349
1.9969676 -0.68181205 1.6291751
1.9911804 -0.70535696 1.6250308
2.0091131 -0.62585926 1.5956546
2.0019801 -0.65259814 1.5992558
1.9984293 -0.68243194 1.5995662
1.9915848 -0.70951509 1.6009167
2.0117013 -0.62405437 1.5703721
2.0032706 -0.6524446 1.570344
1.9955094 -0.68054509 1.5719818
1.9900024 -0.70215738 1.5781839
2.0116746 -0.63130999 1.5412321
1.9967504 -0.65032125 1.5416337
1.9877801 -0.67132771 1.5511491
2.0092802 -0.63318312 1.5087137
1.993669 -0.64782369 1.5080125
1.98778 -0.68578327 1.499109
1.9877803 -0.71075201 1.5013869
1.98778 -0.74970907 1.5020001
1.98778 -0.76255852 1.5029638
2.0102801 -0.60017878 1.4744081
2.0060453 -0.62308729 1.4800801
1.994917 -0.65290463 1.4800298
1.9885073 -0.67888027 1.486079
1.9877801 -0.69831145 1.4933268
2.0137801 -0.57549584 1.4386311
2.0022521 -0.59465653 1.4480736
1.9908625 -0.62307787 1.4494748
1.9904939 -0.65142751 1.4493543
1.9877802 -0.67132771 1.4427001
2.0117803 -0.5734365 1.4246789
2.0002112 -0.59249544 1.4182932
1.9971188 -0.62247944 1.4190012
1.9900705 -0.64591801 1.4197011
1.9877802 -0.68000108 1.427313
2.0082798 -0.62573886 1.3893348
1.9943514 -0.65116102 1.3899062
1.9881001 -0.67711812 1.3840302
1.9894273 -0.70547414 1.3825805
2.0116258 -0.59235525 1.3537295
2.0082395 -0.62343001 1.3589603
1.999387 -0.65326488 1.3611443
1.9931997 -0.68066597 1.36203
1.9901332 -0.70397389 1.3687935
2.0066035 -0.59421527 1.3310158
1.9980655 -0.6225161 1.3300288
1.9926976 -0.65219009 1.3302343
1.9893804 -0.67348909 1.3322845
2.0137801 -0.57549584 1.2896123
2.005863 -0.59131229 1.2991847
1.9941672 -0.62110591 1.2992231
1.98778 -0.64691389 1.309152
2.0062933 -0.59642243 1.2704526
1.994367 -0.62266767 1.2693001
1.9882244 -0.64595175 1.2603252
2.0125799 -0.57073188 1.2312021
2.0042799 -0.59353137 1.2401478
1.9954919 -0.62236619 1.240279
1.9902245 -0.64912611 1.2453221
1.9877801 -0.66747296 1.2524004
2.0123253 -0.56948602 1.2135322
2.0043273 -0.59198189 1.2093815
1.9936316 -0.620884 1.2099587
1.9891135 -0.64145768 1.1977386
2.0137801 -0.57549584 1.1817696
2.0086575 -0.5925318 1.1800622
1.9995248 -0.62252611 1.1798917
1.9913319 -0.64510292 1.1771758
2.010941 -0.59546882 1.1556978
2.0061531 -0.62150156 1.1499596
1.9983014 -0.65165055 1.1491649
1.9883515 -0.67120385 1.1446966
2.0107799 -0.60053766 1.1146545
1.9982703 -0.62179029 1.1209719
1.9941241 -0.65168619 1.1284034
1.9891135 -0.67168117 1.1302228
2.0137801 -0.57451546 1.0807898
2.0046887 -0.59322089 1.0892799
1.9899744 -0.61722744 1.091442
1.9902415 -0.6541698 1.0781972
1.9906894 -0.67771798 1.0784137
2.0134468 -0.57428062 1.0589391
2.0049634 -0.59230876 1.0598557
1.9926015 -0.62331617 1.059779
1.9980422 -0.65213257 1.0589902
1.9961962 -0.67990565 1.0604345
2.0132799 -0.57465339 1.0338006
2.0052981 -0.59298491 1.0305164
1.9952711 -0.62246001 1.0287637
1.9921416 -0.64972907 1.0320085
1.9877801 -0.66940033 1.0403852
2.0121799 -0.57201868 0.9985128
1.9973092 -0.59187591 1.0001999
1.9885302 -0.61500049 1.0074997
2.0124469 -0.57455647 0.98266089
2.0061259 -0.59651005 0.97291702
1.9923325 -0.6206733 0.96870518
1.9877801 -0.64048916 0.95750666
2.0137801 -0.60556102 0.94059438
2.0048862 -0.62264049 0.93942368
1.992749 -0.64933968 0.93753511
1.9877802 -0.66875792 0.93052292
2.011703 -0.54112065 0.90457129
2.008678 -0.5626297 0.90910697
2.0070877 -0.5933302 0.90789509
2.0072398 -0.62210798 0.90942276
2.0000629 -0.65244019 0.90998435
1.9889799 -0.67145306 0.9132933
2.0137801 -0.54216266 0.89353579
2.0121799 -0.56757867 0.88450825
2.0075164 -0.59306264 0.87880903
2.0086741 -0.62173152 0.8781746
1.9964797 -0.65181589 0.87895042
1.9877801 -0.66747296 0.87270057
1.9877801 -0.70987594 0.86499095
2.0076237 -0.56827551 0.84790063
1.9975383 -0.59198248 0.85041273
1.99378 -0.61931795 0.85402477
1.9906373 -0.64863241 0.86121905
1.98778 -0.6909523 0.85587955
1.9901026 -0.70806253 0.85318232
2.0056131 -0.56580859 0.82027388
1.9907588 -0.59302187 0.82043374
1.9877802 -0.60965061 0.81102335
2.0095131 -0.56623423 0.79195702
1.9948384 -0.5911777 0.79064119
1.9877801 -0.60965061 0.80331379
2.0113015 -0.56987619 0.75930291
1.998989 -0.59138465 0.75983799
1.9910527 -0.61336708 0.75140339
2.0124321 -0.53872764 0.72487098
2.0083871 -0.56198287 0.72955251
1.9983181 -0.59012508 0.73141426
1.992047 -0.61318445 0.73760676
1.9877801 -0.66361809 0.71850771
1.9877801 -0.66940033 0.71850771
2.011066 -0.53988969 0.70441222
1.9992381 -0.56233275 0.70124072
1.9895984 -0.58216441 0.70803773
1.98878 -0.63543075 0.69018263
1.9916967 -0.65397418 0.69721627
1.9877801 -0.67162424 0.70516413
2.0137801 -0.54412341 0.67588979
2.0006967 -0.55672956 0.67923462
1.98858 -0.6333586 0.68119729
1.988669 -0.6471324 0.68176311
2.04478 -0.60295582 1.8864821
2.0389869 -0.59753573 1.8662703
2.027823 -0.62263262 1.8682573
2.0189562 -0.64466155 1.8656082
2.0424097 -0.59644705 1.8443809
2.0312376 -0.62181473 1.8394879
2.0203357 -0.64818466 1.8370771
2.0437801 -0.60220826 1.8011099
2.0350249 -0.62153828 1.8104712
2.0206552 -0.64843696 1.8123329
2.0402083 -0.59566617 1.7784046
2.028019 -0.62163043 1.779448
2.0177798 -0.6402505 1.7792141
2.0385475 -0.59432048 1.7506816
2.0252798 -0.62027252 1.7508335
2.0177801 -0.63730168 1.7595551
2.04478 -0.57394779 1.7094331
2.0366611 -0.59162122 1.7190574
2.021306 -0.61261493 1.7207934
2.0434468 -0.57290828 1.6892564
2.0352912 -0.59154886 1.68945
2.0227323 -0.61743569 1.688301
2.0446415 -0.56946659 1.6587957
2.0386317 -0.5920223 1.6585808
2.0244546 -0.61882085 1.6587533
2.0426464 -0.56451142 1.6303439
2.0401711 -0.59145427 1.6300099
2.0292697 -0.62205058 1.631129
2.01828 -0.64013445 1.6304197
2.0431132 -0.5705657 1.6010333
2.0297799 -0.59285349 1.5997273
2.0205493 -0.61483192 1.6085203
2.0381715 -0.56806695 1.5681921
2.0249338 -0.59199154 1.5700293
2.0177801 -0.61135173 1.562571
2.0425692 -0.56555283 1.539446
2.0311017 -0.591524 1.5402563
2.021697 -0.61590219 1.5388789
2.0433064 -0.56945491 1.5086703
2.0332084 -0.591115 1.5092531
2.0242209 -0.61580706 1.5113161
2.04478 -0.54093862 1.4683663
2.0383253 -0.56218469 1.4787147
2.0225801 -0.58909428 1.4833376
2.0177801 -0.61174488 1.4941576
2.0442085 -0.54110491 1.4502933
2.0321207 -0.56103146 1.4505857
2.0197802 -0.58105791 1.4577268
2.0424469 -0.54228497 1.4187686
2.0298882 -0.55871379 1.4178531
2.0177801 -0.57832444 1.4076576
2.04478 -0.54293919 1.4023479
2.0401068 -0.56278038 1.3909347
2.0298185 -0.59178436 1.3910117
2.0193183 -0.61120486 1.3890395
2.0431135 -0.54175735 1.3565623
2.0281551 -0.56169415 1.359798
2.0211263 -0.59150386 1.3675337
2.0177801 -0.60977894 1.3703054
2.04478 -0.54160541 1.3276606
2.0304544 -0.56118613 1.3299978
2.0177801 -0.57832444 1.3250895
2.0410657 -0.53888273 1.3002129
2.0264912 -0.56142265 1.3004519
2.0434468 -0.54199374 1.2809575
2.0329506 -0.56049764 1.270372
2.0194466 -0.57950723 1.2684181
2.0393255 -0.53708959 1.2354697
2.0269551 -0.55949068 1.2424728
2.0197802 -0.57876092 1.2513647
2.0365231 -0.53338212 1.2105296
2.0207489 -0.55731487 1.2053156
2.0395908 -0.535815 1.1818789
2.0235639 -0.56094038 1.1793262
2.0431132 -0.54142475 1.1533805
2.0303514 -0.56216443 1.1492097
2.0192347 -0.58633053 1.1441187
2.0444467 -0.54136908 1.1183009
2.0364075 -0.5608803 1.1196327
2.0217156 -0.58792078 1.1211848
2.0397477 -0.53693283 1.0892582
2.0254884 -0.56105697 1.0909153
2.0197802 -0.57974643 1.1007777
2.0390658 -0.53224671 1.0590712
2.02303 -0.55902129 1.0601118
2.0383358 -0.53384268 1.0315062
2.0238037 -0.55918247 1.0295998
2.0400658 -0.53831875 0.9993
2.0250301 -0.55879986 1.0009968
2.039542 -0.53562009 0.9702307
2.029566 -0.56160718 0.9677037
2.0210876 -0.58499348 0.96363831
2.040221 -0.53651464 0.93834531
2.0347285 -0.56122148 0.93788588
2.0272083 -0.59017563 0.93840384
2.0177801 -0.60977894 0.93190801
2.0392628 -0.50604582 0.90470725
2.0262928 -0.52966148 0.91260743
2.0220876 -0.5641129 0.92160034
2.02018 -0.58829272 0.92195135
2.0436373 -0.44902611 0.86762738
2.0376968 -0.47496897 0.87473607
2.0272141 -0.50228918 0.88038015
2.0219178 -0.53127897 0.87869489
2.02018 -0.55750209 0.87563562
2.0399227 -0.44705427 0.85244608
2.0347116 -0.47169507 0.85107362
2.0322292 -0.503025 0.85075188
2.0306525 -0.53169155 0.85030377
2.0211799 -0.55335438 0.85297787
2.04478 -0.48092198 0.83419049
2.04478 -0.5063957 0.82298732
2.0348439 -0.53244054 0.81920898
2.0197802 -0.55021936 0.81929368
2.04478 -0.48592335 0.78117579
2.0369258 -0.50449204 0.78815079
2.0258331 -0.53221673 0.79029787
2.018703 -0.5529533 0.78674954
2.0407801 -0.48084295 0.75925046
2.0280299 -0.50228179 0.76022315
2.0207801 -0.53220135 0.75990939
2.0199337 -0.55471396 0.75957733
2.0406423 -0.4789117 0.72921842
2.028152 -0.50229311 0.73013967
2.0193098 -0.52777767 0.73352534
2.0177801 -0.55276763 0.74318087
2.04478 -0.44091094 0.69615221
2.0429902 -0.4745667 0.7002632
2.0321202 -0.50247616 0.69965285
2.0218799 -0.52693391 0.69686317
2.0419228 -0.4772957 0.66922557
2.0358496 -0.50149965 0.67183381
2.0293355 -0.52717406 0.67285687
2.0662465 -0.56100219 1.8916599
2.0543513 -0.58672392 1.8892093
2.0707798 -0.53902835 1.8640708
2.0588889 -0.56250644 1.8701713
2.0490465 -0.58342183 1.8708267
2.0711133 -0.51356959 1.8361247
2.0620661 -0.53297925 1.8399374
2.0558362 -0.56244487 1.8383474
2.0501132 -0.586887 1.8351053
2.070447 -0.50888985 1.808219
2.0597992 -0.53110832 1.8091551
2.0575294 -0.56114328 1.8098916
2.0522399 -0.58997971 1.8114885
2.0727801 -0.4850046 1.777447
2.0676374 -0.50244397 1.7798493
2.0613256 -0.53274649 1.7804766
2.0576553 -0.56229091 1.7805057
2.04918 -0.58097959 1.7819388
2.0727801 -0.48455203 1.7620602
2.066807 -0.50471866 1.7528268
2.0614238 -0.53150707 1.7508042
2.0566173 -0.56132615 1.7498964
2.04878 -0.57787669 1.7497103
2.0727801 -0.51442051 1.7308341
2.0629022 -0.53290355 1.7206554
2.052954 -0.55943257 1.7213076
2.04878 -0.57787669 1.7296534
2.0727801 -0.51360589 1.6835877
2.0630484 -0.53177625 1.6892128
2.0518072 -0.55674303 1.6906526
2.0727801 -0.47369081 1.6458836
2.0717087 -0.50980049 1.655797
2.0603614 -0.53236818 1.6601038
2.0499973 -0.55433315 1.6613436
2.0716689 -0.47405714 1.636659
2.0695233 -0.50205493 1.6359
2.058923 -0.53220475 1.6300056
2.0493517 -0.55192584 1.6217645
2.066263 -0.53736925 1.5992171
2.05246 -0.55581295 1.6005719
2.0667803 -0.53516603 1.569883
2.0527799 -0.55245686 1.5709515
2.0707798 -0.51339936 1.535388
2.0596826 -0.53257072 1.5394289
2.0494466 -0.55294919 1.5379014
2.0698299 -0.50738525 1.5073717
2.0565002 -0.53265697 1.5090747
2.0495801 -0.55625385 1.5116984
2.0706968 -0.45132637 1.4759845
2.065958 -0.47223884 1.4784424
2.05936 -0.50193703 1.4798259
2.051971 -0.5313586 1.4809368
2.04878 -0.54979706 1.4889709
2.0679193 -0.47483009 1.4525754
2.0625477 -0.50133646 1.4505492
2.0539677 -0.52616942 1.4494934
2.0727801 -0.48183674 1.4261019
2.0654759 -0.5014652 1.4200777
2.0521238 -0.52797675 1.4198792
2.0722799 -0.48037118 1.3817422
2.0700984 -0.50182635 1.3900381
2.0553312 -0.5302285 1.3893614
2.04878 -0.54979706 1.3947036
2.0722537 -0.47900647 1.3620915
2.064384 -0.50101328 1.3593999
2.0538769 -0.52729481 1.3601156
2.0670409 -0.47980958 1.3287634
2.0551529 -0.50326586 1.3302048
2.049871 -0.52904445 1.3313053
2.0711133 -0.48169887 1.3065093
2.0617199 -0.50296116 1.3008733
2.0511799 -0.52419794 1.3005
2.0727801 -0.4859097 1.264479
2.0692055 -0.50177896 1.2700424
2.0563803 -0.52916378 1.2694135
2.0727801 -0.45332593 1.2400413
2.0716348 -0.47092575 1.2379369
2.0638573 -0.50138295 1.2398332
2.0532799 -0.52621114 1.2454315
2.0691266 -0.47691768 1.2114789
2.0572085 -0.50099063 1.2099437
2.04878 -0.51770604 1.2101803
2.0690985 -0.47914696 1.1804107
2.057703 -0.50191963 1.1790404
2.0497031 -0.52174616 1.1768034
2.0692801 -0.47980779 1.1493196
2.0606575 -0.50192523 1.1492112
2.0526466 -0.52736974 1.1485431
2.0687327 -0.47908127 1.1202286
2.0610938 -0.50218439 1.1202514
2.0514467 -0.52815425 1.1203681
2.0722446 -0.47633809 1.0875051
2.0609655 -0.50144333 1.0900527
2.0495071 -0.5233196 1.0930489
2.0662675 -0.47457445 1.0593973
2.0554819 -0.50174963 1.0592349
2.04878 -0.51837456 1.0671079
2.0670383 -0.47648859 1.0322659
2.0562692 -0.50222963 1.0286669
2.0494466 -0.52084613 1.0242188
2.0704374 -0.44389904 0.9948349
2.0695662 -0.47232646 0.99716568
2.0600801 -0.50185812 1.000089
2.0496221 -0.52399492 0.99976659
2.0672092 -0.44391286 0.97057116
2.0634665 -0.47207516 0.97078478
2.05703 -0.50105166 0.97000623
2.04878 -0.51890945 0.96869552
2.0676718 -0.4448278 0.93975729
2.0639207 -0.47227526 0.94016254
2.0588841 -0.50222802 0.93914044
2.0496371 -0.52260298 0.94153279
2.0681353 -0.41705245 0.90820384
2.0594025 -0.44251013 0.9090519
2.0568502 -0.47115588 0.90981984
2.0529943 -0.49716121 0.91630721
2.06637 -0.41515148 0.87944198
2.0566931 -0.441652 0.88068461
2.0527797 -0.4672094 0.88633001
2.0628948 -0.41274405 0.85162771
2.05053 -0.4330858 0.84744555
2.0684118 -0.41783303 0.82395792
2.0588801 -0.44253123 0.82007515
2.0526099 -0.4715215 0.81889606
2.04878 -0.49965489 0.81685454
2.0674052 -0.44602591 0.79138267
2.0540509 -0.47129667 0.79093814
2.04878 -0.49283558 0.79941547
2.0727801 -0.39106774 0.75332129
2.0694661 -0.41264862 0.75564635
2.06286 -0.44197947 0.75946486
2.0531371 -0.46536243 0.76255369
2.0716262 -0.42209905 0.73239601
2.0612383 -0.44277334 0.72876185
2.0504642 -0.46392626 0.73184359
2.0727801 -0.33215505 0.69324499
2.0727806 -0.35290623 0.69517606
2.0699136 -0.38066715 0.69840443
2.0602379 -0.41173017 0.70054585
2.0521271 -0.44128031 0.70153546
2.04878 -0.45914006 0.70073569
2.0725951 -0.35655367 0.67298776
2.0666132 -0.38149691 0.66820365
2.0600157 -0.41206217 0.66854626
2.0540199 -0.44284165 0.66981119
2.04878 -0.46345693 0.67399317
2.0706372 -0.35759884 0.65056807
2.0609231 -0.38057184 0.65196264
2.0582802 -0.41187865 0.65297419
2.0567801 -0.43461508 0.65354836
2.1030469 -0.38567394 1.895834
2.0984945 -0.41141278 1.8978975
2.1035166 -0.43209463 1.8962903
2.1032803 -0.47867912 1.9081062
2.098536 -0.50243986 1.8973429
2.0850658 -0.53133339 1.8954668
2.1047802 -0.39012933 1.8805172
2.1027799 -0.41325265 1.8805482
2.103478 -0.44310057 1.8713497
2.1004725 -0.47103482 1.8676114
2.0925515 -0.50145245 1.8699229
2.0811436 -0.52880383 1.873112
2.1026745 -0.41643989 1.833281
2.1024945 -0.43914908 1.8353307
2.1004837 -0.47498351 1.8393626
2.0847802 -0.49817914 1.8413802
2.1027801 -0.35382313 1.8028387
2.1047802 -0.36935383 1.8039448
2.1021919 -0.4143278 1.8096871
2.0953107 -0.44045639 1.8095876
2.0895367 -0.47138697 1.8106346
2.0809617 -0.49536777 1.8114533
2.1047802 -0.33433235 1.7944474
2.1022534 -0.35196072 1.7898905
2.1047802 -0.38696355 1.7847521
2.1000688 -0.41275668 1.7793398
2.095165 -0.44199556 1.779799
2.0821133 -0.47002929 1.7802832
2.1047802 -0.39665878 1.7362761
2.1010025 -0.41394109 1.7489734
2.0984232 -0.44225949 1.7496052
2.0925984 -0.47240108 1.7516404
2.0847802 -0.4957208 1.7415249
2.1047802 -0.394741 1.7186968
2.1018636 -0.41354722 1.7193201
2.1012449 -0.43895811 1.7231576
2.1026468 -0.47296232 1.7090862
2.0909338 -0.5020057 1.7204264
2.0767801 -0.51932919 1.7177424
2.1047797 -0.41771138 1.6909854
2.102993 -0.4414739 1.6891267
2.0966868 -0.4716602 1.6881113
2.0829515 -0.4998343 1.6899681
2.0767801 -0.51728761 1.7034512
2.1042085 -0.41941804 1.6625302
2.0929751 -0.44045383 1.6599407
2.0859227 -0.47112072 1.6611123
2.0812244 -0.49804467 1.663461
2.1047802 -0.42262816 1.6386313
2.0942349 -0.44343007 1.6306584
2.0858331 -0.4705801 1.6233017
2.0811133 -0.49857831 1.6214108
2.0767801 -0.51932919 1.6177032
2.10378 -0.35723293 1.5899502
2.1029134 -0.38185763 1.5885261
2.103066 -0.40678734 1.5869348
2.1047802 -0.45483011 1.6116232
2.1005516 -0.47577298 1.6013322
2.08638 -0.50250781 1.6006316
2.0777798 -0.52158231 1.5995502
2.101809 -0.35628027 1.5694916
2.0979104 -0.38184214 1.5692776
2.0956137 -0.41099542 1.5692513
2.0965519 -0.44081932 1.5676621
2.0984945 -0.4731949 1.5681733
2.0867333 -0.50251341 1.5702831
2.0771132 -0.52195168 1.5687701
2.1003699 -0.35429627 1.5395777
2.0949135 -0.38141227 1.5389792
2.0912707 -0.41122282 1.5389817
2.0892465 -0.44159156 1.5399293
2.0936103 -0.46986693 1.5405531
2.0853682 -0.49753386 1.5409287
2.099669 -0.35286832 1.5130355
2.0977983 -0.38203686 1.509712
2.0971885 -0.41120148 1.5116206
2.0945053 -0.44184315 1.5106987
2.0894468 -0.47132832 1.5101814
2.0803094 -0.49624008 1.5138006
2.1037133 -0.3906858 1.4765778
2.0931609 -0.4113571 1.4799039
2.0801349 -0.43812835 1.4805366
2.0767801 -0.46216393 1.4911228
2.1023355 -0.38995534 1.4506638
2.0931354 -0.41215187 1.4501911
2.0850935 -0.44072539 1.4498478
2.0781136 -0.4637568 1.4418249
2.1014113 -0.39004517 1.4201458
2.0873575 -0.4135201 1.4197959
2.0851643 -0.44158512 1.4190348
2.080399 -0.46873266 1.4179907
2.1039801 -0.39363337 1.4004706
2.0992417 -0.41282815 1.3910236
2.0892346 -0.44085115 1.3905543
2.0799596 -0.46963334 1.3910958
2.0767801 -0.48870498 1.3870003
2.10478 -0.39397013 1.3584067
2.1044798 -0.41099787 1.3634378
2.0974021 -0.44248527 1.3600665
2.0814114 -0.46501976 1.3605474
2.1047802 -0.38488597 1.3200738
2.1032145 -0.4134804 1.3239572
2.0974469 -0.4415096 1.3279632
2.0812011 -0.46444339 1.3303697
2.1047802 -0.39167261 1.3116252
2.1021457 -0.41361946 1.3000059
2.0953336 -0.44198561 1.3001558
2.0824771 -0.47060192 1.2972533
2.1032796 -0.41446429 1.2697301
2.0935798 -0.44095862 1.271366
2.0805893 -0.47081411 1.270676
2.0767801 -0.48870498 1.2808362
2.1043589 -0.39134872 1.2376705
2.0964537 -0.41238886 1.2396097
2.0830126 -0.4409371 1.2403728
2.0767801 -0.47146463 1.2520267
2.102962 -0.41430581 1.2188166
2.0927801 -0.44176185 1.2101591
2.08003 -0.46260113 1.2062132
2.1047802 -0.39665878 1.1670278
2.1043358 -0.41574544 1.1688987
2.0980372 -0.44040293 1.1791039
2.0805895 -0.46292323 1.1806185
2.1047802 -0.39416569 1.155809
2.1025479 -0.41234463 1.1505568
2.0962698 -0.4411242 1.1501595
2.0804324 -0.46582323 1.1514455
2.1021135 -0.36307985 1.1063337
2.1009905 -0.38431823 1.1094229
2.1015353 -0.41171879 1.1190156
2.0977364 -0.44268578 1.1198367
2.0810657 -0.46481359 1.1191794
2.102519 -0.32749689 1.085067
2.09603 -0.35211211 1.0902014
2.0903308 -0.38201576 1.0895798
2.0940433 -0.41187823 1.0894951
2.0911984 -0.44125193 1.0898832
2.0790956 -0.46342629 1.090732
2.1022346 -0.3542273 1.0694835
2.0973799 -0.38119155 1.0608087
2.0845494 -0.41188359 1.0602708
2.0806448 -0.44160527 1.0593591
2.0767801 -0.46012229 1.061022
2.1047802 -0.33225477 1.0174444
2.1016221 -0.3546102 1.0220598
2.0971799 -0.38178384 1.0297348
2.084954 -0.41086572 1.028373
2.0790448 -0.44176447 1.0298574
2.0775075 -0.46173292 1.0262687
2.1018324 -0.32920414 1.0012853
2.0965447 -0.35245901 1.0020273
2.0964322 -0.38124335 1.0013127
2.0883989 -0.41064644 1.0004579
2.0779228 -0.4400841 1.007766
2.0771437 -0.46519738 1.0081322
2.1047802 -0.33433235 0.98420358
2.1045895 -0.35498703 0.97849751
2.1031137 -0.38196093 0.97099614
2.0874827 -0.41160423 0.96976703
2.0767801 -0.42745644 0.96601868
2.0981135 -0.38532424 0.93965709
2.0853019 -0.409666 0.93963492
2.0767801 -0.42847723 0.94090676
2.1022801 -0.24149013 0.90216857
2.1017032 -0.25456524 0.90177631
2.1027801 -0.3631618 0.90050244
2.0894284 -0.38331044 0.90959704
2.0787799 -0.40425408 0.91435295
2.0994468 -0.24105984 0.88254642
2.0987358 -0.26120406 0.88172567
2.1047802 -0.33433235 0.86786085
2.1016078 -0.35735708 0.87763023
2.0863187 -0.38252747 0.87902296
2.0767803 -0.39887375 0.87863743
2.1047802 -0.24153513 0.86232078
2.1027803 -0.2547459 0.86263084
2.103689 -0.33062369 0.8498168
2.09727 -0.35225558 0.85041988
2.0850878 -0.38183761 0.85057342
2.0767801 -0.39887375 0.84188831
2.1029468 -0.33040982 0.81936276
2.0954163 -0.35327619 0.82100201
2.089416 -0.38111156 0.81943655
2.0794466 -0.40559274 0.8166517
2.1047802 -0.30386168 0.78060377
2.0978277 -0.32367247 0.78729111
2.0927801 -0.35271817 0.79003835
2.0939231 -0.38088697 0.78942621
2.0878911 -0.4103117 0.78819227
2.0782084 -0.43249029 0.78692579
2.1031802 -0.30094814 0.75658929
2.0892904 -0.32217216 0.7601124
2.0816927 -0.35226196 0.7610094
2.0820529 -0.37948751 0.76354265
2.0814757 -0.40939587 0.76945621
2.0767801 -0.42881757 0.7711122
2.1047802 -0.27283686 0.71993941
2.09778 -0.29397815 0.72853804
2.0861676 -0.32190967 0.72906369
2.0808575 -0.3527742 0.72936052
2.078064 -0.38150954 0.7289049
2.0784464 -0.40721369 0.72586852
2.1031551 -0.26624441 0.69858819
2.0940044 -0.29096693 0.69886678
2.081461 -0.32103968 0.70040256
2.07758 -0.34938461 0.70768636
2.07728 -0.38643354 0.71003437
2.1047802 -0.2429201 0.66426116
2.0970802 -0.26200032 0.67006397
2.0894628 -0.29160851 0.67164463
2.0841317 -0.32248992 0.66955906
2.0782344 -0.3464933 0.66669631
2.1047802 -0.26577324 0.65110332
2.1026745 -0.29479152 0.64733267
2.0935421 -0.32083452 0.64616084
2.0781136 -0.34320098 0.64947098
2.1312799 -0.26646906 1.9194152
2.1239228 -0.29285669 1.9185455
2.1226134 -0.32073134 1.918015
2.1177802 -0.34576577 1.9160569
2.1341133 -0.2433607 1.8994079
2.125618 -0.26095593 1.8981962
2.118597 -0.29156101 1.8996305
2.1180308 -0.32079232 1.8991425
2.1129973 -0.35183996 1.8995085
2.1101136 -0.37279457 1.9049623
2.11198 -0.44491422 1.9025437
2.1121387 -0.4705556 1.8984678
2.1347799 -0.24587679 1.8848553
2.1300659 -0.26460069 1.880935
2.1265643 -0.2924723 1.8721944
2.1206217 -0.32097375 1.8709527
2.1118164 -0.35299766 1.8690181
2.1143298 -0.38100135 1.8685815
2.1130018 -0.41042656 1.8669003
2.1097803 -0.43544227 1.8612378
2.1097801 -0.47191167 1.8836403
2.1347799 -0.26703727 1.8263113
2.1321645 -0.29581535 1.839484
2.1223633 -0.32161421 1.840374
2.1198187 -0.35207754 1.8416307
2.1177802 -0.38202631 1.8411522
2.1107326 -0.4087463 1.844689
2.1101613 -0.44528788 1.8480544
2.1102805 -0.46210903 1.8455281
2.1347799 -0.26643264 1.8201648
2.1330876 -0.2965647 1.8129818
2.1192942 -0.32130545 1.8106648
2.1124468 -0.34997827 1.8183453
2.110302 -0.38291824 1.8090711
2.1097803 -0.40016371 1.813381
2.1331801 -0.30495083 1.7895335
2.1256516 -0.3252548 1.7813995
2.1214674 -0.35251242 1.7771473
2.1123888 -0.38157761 1.7796369
2.1097801 -0.39897287 1.7669382
2.1347799 -0.32693762 1.7412899
2.1307797 -0.35164768 1.7502306
2.1157315 -0.38186836 1.7502397
2.1097803 -0.39897287 1.7544345
2.11378 -0.45599484 1.7389522
2.1134944 -0.46802449 1.7394598
2.1344461 -0.29539388 1.7171258
2.1347795 -0.3215943 1.7198038
2.1282797 -0.35287368 1.7191972
2.1142087 -0.37882298 1.7202747
2.1104469 -0.44830334 1.7178125
2.112637 -0.46979338 1.7250476
2.1347799 -0.27444345 1.6922952
2.1343513 -0.2892884 1.6950508
2.1347799 -0.32946056 1.6991723
2.1251462 -0.35378534 1.6894718
2.1110566 -0.38394302 1.6895914
2.1097803 -0.40230727 1.6898316
2.1097801 -0.44898802 1.7044194
2.1347799 -0.2691533 1.6478583
2.1347799 -0.28396565 1.6478583
2.1347799 -0.33475071 1.6478583
2.1296186 -0.35463971 1.659148
2.1164465 -0.38186175 1.6602321
2.1115136 -0.40528703 1.6585824
2.1329339 -0.26622355 1.6313251
2.1271627 -0.2912007 1.6304598
2.1244137 -0.32169241 1.6305441
2.1203485 -0.35293877 1.6294661
2.120558 -0.38242167 1.629771
2.1169429 -0.40985757 1.628605
2.11058 -0.43370533 1.6195719
2.1347799 -0.2691533 1.6140015
2.1297801 -0.29469323 1.6025578
2.1163011 -0.32236302 1.6006347
2.1111856 -0.35223991 1.6045842
2.1147137 -0.38169396 1.6037884
2.1149895 -0.41388416 1.6018268
2.1145799 -0.44151145 1.6001215
2.1097803 -0.46149182 1.5971899
2.1347799 -0.27285635 1.5637455
2.1307797 -0.29271984 1.5700506
2.1178498 -0.32282341 1.5694952
2.1097803 -0.34062189 1.5710456
2.1105075 -0.44268113 1.582181
2.1097803 -0.46065825 1.5818822
2.1347792 -0.26659173 1.5411651
2.1320179 -0.29208964 1.5413694
2.1175551 -0.32227463 1.5401013
2.1097801 -0.34062189 1.5502059
2.1330023 -0.29858792 1.510275
2.1184211 -0.32163614 1.5092274
2.1100881 -0.35043639 1.4983128
2.1097801 -0.37604928 1.4960229
2.1323802 -0.30055028 1.4772338
2.1240301 -0.32318586 1.4809996
2.117691 -0.35110152 1.4809922
2.1117797 -0.37557828 1.4811151
2.1347799 -0.21455932 1.4396394
2.13398 -0.22593838 1.4399747
2.1347799 -0.27550143 1.4362538
2.1326547 -0.29398924 1.4467187
2.12328 -0.32226205 1.4519022
2.1211925 -0.35156542 1.4508055
2.1128912 -0.37555158 1.4498501
2.1347799 -0.21625215 1.4299057
2.1342468 -0.23202026 1.4274502
2.1345296 -0.26304752 1.4183743
2.1311793 -0.29126221 1.418461
2.1240044 -0.32199866 1.4202905
2.1215639 -0.35153008 1.4206562
2.1135449 -0.37521917 1.4204057
2.1347799 -0.27338541 1.3928748
2.1306057 -0.29338193 1.3899144
2.1291964 -0.32223219 1.3892528
2.1256061 -0.35187614 1.3884013
2.11408 -0.38160253 1.3883187
2.1097801 -0.39897287 1.3855728
2.1330657 -0.26900226 1.3575557
2.1228485 -0.29179043 1.3592334
2.1191139 -0.32095283 1.3589156
2.1173377 -0.35166276 1.3592182
2.1119871 -0.37786251 1.3581944
2.110847 -0.41665417 1.3510408
2.1097801 -0.42814839 1.3480614
2.1304097 -0.26474345 1.3297799
2.1212711 -0.29227829 1.329571
2.119647 -0.321536 1.3302994
2.1132798 -0.35199112 1.3297247
2.1102128 -0.38190973 1.3322572
2.1106498 -0.40989655 1.3355126
2.1097801 -0.42814839 1.3418095
2.1338389 -0.27019155 1.3030344
2.1303091 -0.29367763 1.3011122
2.1306095 -0.32322204 1.3002602
2.125689 -0.3525551 1.3004557
2.1166446 -0.38093913 1.2994012
2.1097801 -0.39897287 1.2917944
2.1347799 -0.24466759 1.2663655
2.1296654 -0.2635113 1.2706869
2.1274142 -0.29096365 1.2706543
2.1271877 -0.32155317 1.2706109
2.1287403 -0.35107118 1.2718866
2.1203442 -0.38119197 1.2704226
2.1113801 -0.40005088 1.2747278
2.1347799 -0.24587679 1.2521578
2.1299467 -0.26297897 1.2428709
2.1252456 -0.29201972 1.2415755
2.1318228 -0.32079554 1.2421447
2.1297798 -0.35328692 1.2404037
2.1149001 -0.37701005 1.2419105
2.1321645 -0.2059477 1.2055231
2.1321456 -0.23090714 1.2040877
2.1347799 -0.26391888 1.2095028
2.1319797 -0.29396147 1.2118504
2.1282411 -0.32319254 1.2105899
2.1252899 -0.35150564 1.2089089
2.1185884 -0.38271219 1.2073593
2.1155467 -0.40995073 1.2049117
2.1097801 -0.42814839 1.1980159
2.1347799 -0.21117365 1.1899461
2.13398 -0.2360934 1.1861683
2.1302323 -0.2628147 1.1782196
2.1319048 -0.28746372 1.1774484
2.1320658 -0.32466984 1.1816862
2.1234469 -0.35245639 1.1793724
2.1183426 -0.38265133 1.1799378
2.1150227 -0.41059273 1.1809293
2.1097801 -0.42814839 1.1917641
2.1304836 -0.26580971 1.1523346
2.1315241 -0.28960717 1.147395
2.1347799 -0.32359344 1.1427006
2.1300654 -0.35139865 1.1487595
2.114749 -0.38001567 1.1480527
2.1328907 -0.29475808 1.1195985
2.1253357 -0.32246357 1.1201197
2.1217799 -0.35130572 1.1203266
2.1149468 -0.38033551 1.123561
2.1097803 -0.42259109 1.1202147
2.1318913 -0.26690471 1.0836494
2.1231747 -0.29173452 1.0906281
2.1117802 -0.31718141 1.0933077
2.1097801 -0.3447898 1.1042376
2.1312413 -0.26339674 1.059526
2.1200004 -0.29135948 1.0603296
2.1186304 -0.32175159 1.0591776
2.1128912 -0.35157752 1.0556874
2.1347799 -0.18451154 1.0193928
2.1287804 -0.20391035 1.0198382
2.1305895 -0.23132724 1.0190946
2.1324205 -0.26254445 1.0296397
2.1268175 -0.29257107 1.0311427
2.1214395 -0.32179821 1.0301311
2.1155658 -0.34977573 1.0360413
2.1097801 -0.36979735 1.0417186
2.133857 -0.1808989 1.0040687
2.1264191 -0.20313179 1.0009204
2.125392 -0.23281723 1.0012794
2.1284938 -0.26138693 1.0013287
2.124042 -0.29069358 1.0006114
2.1120961 -0.31463796 0.99923456
2.1347799 -0.21625215 0.98342001
2.1314116 -0.2337333 0.97152209
2.1278992 -0.2619921 0.97164923
2.1283708 -0.29037565 0.97105074
2.1184301 -0.32192403 0.96933526
2.1118603 -0.34979248 0.96431839
2.1097801 -0.36979735 0.96044403
2.1307802 -0.20632023 0.93891287
2.1287155 -0.23233879 0.93955255
2.1341522 -0.26209337 0.94022477
2.1341133 -0.29341537 0.94968569
2.1308634 -0.32347691 0.94412231
2.1219735 -0.35274953 0.94189513
2.1111135 -0.37020874 0.93910885
2.1283801 -0.20527577 0.9102875
2.114517 -0.2310127 0.91306645
2.1199253 -0.2635662 0.91156501
2.1296055 -0.28896695 0.90578091
2.1312599 -0.32163781 0.90123618
