# .PCD v0.7 - Point Cloud Data file format
VERSION 0.7
FIELDS x y z rgb
SIZE 4 4 4 4
TYPE F F F U
COUNT 1 1 1 1
WIDTH 1208
HEIGHT 1
VIEWPOINT 0 0 0 1 0 0 0
POINTS 1208
DATA ascii
2.0811002 -1.3237699 3.5091178 13158600
2.0757329 -1.3425314 3.5011463 12040119
2.0686347 -1.369508 3.4982884 11316396
2.0619078 -1.4296273 3.4979131 10066329
2.1209502 0.4534623 3.4641104 16382457
2.1196985 0.42850152 3.4688451 16448250
2.118546 0.39989102 3.4701073 16448250
2.1182246 0.37088805 3.4682205 16448250
2.1183691 0.34448454 3.463273 16316664
2.0793054 -1.3510048 3.4821115 10987431
2.0761459 -1.372241 3.4761994 10329501
2.0735407 -1.4002501 3.4721527 9671571
2.0722923 -1.4298 3.4703827 9276813
2.071923 -1.4593388 3.4710023 8882055
2.1218021 0.50850099 3.4333856 16119285
2.1193511 0.48731408 3.4411774 16514043
2.1154075 0.45969668 3.4450309 16448250
2.1118605 0.42995247 3.4459286 16448250
2.1101301 0.39967898 3.4462054 16316664
2.1104112 0.36970624 3.4462452 16514043
2.1118934 0.34007892 3.4440575 16448250
2.114697 0.3118642 3.4411664 16316664
2.1161947 0.28867009 3.43362 16514043
2.1208918 0.53885865 3.4048769 16382457
2.117651 0.51771599 3.4136946 16382457
2.1110802 0.48955718 3.415647 16448250
2.1011078 0.34000337 3.4148302 16448250
2.1051514 0.31002858 3.4150929 16382457
2.1102705 0.28098166 3.4138436 16382457
2.1131597 0.2570965 3.406846 16514043
2.1208642 0.5686264 3.3733635 16579836
2.1170738 0.54782063 3.3837693 16382457
2.1094093 0.52013683 3.3858595 16448250
2.1016662 0.49025667 3.3858542 16382457
2.0958967 0.46066564 3.3862529 16382457
2.0924711 0.43118203 3.3884916 16448250
2.0914056 0.40102214 3.3921337 16382457
2.0907085 0.37046185 3.3906708 16382457
2.0911925 0.33970061 3.3865836 16316664
2.0943592 0.31038371 3.3853436 16316664
2.0998397 0.28009501 3.385108 16382457
2.1067247 0.25016737 3.3848126 16382457
2.1107788 0.2264106 3.3781285 16316664
2.1176536 0.57571626 3.3531938 16448250
2.1097105 0.55036467 3.3555446 16382457
2.1008286 0.52027845 3.35603 16382457
2.0935273 0.49105528 3.3571582 16382457
2.0902972 0.46485627 3.3652415 16448250
2.0863388 0.32908317 3.3693678 15198183
2.0872402 0.30719587 3.3632393 16448250
2.089715 0.28061175 3.3561687 16448250
2.0960364 0.25073159 3.3550937 16382457
2.1039979 0.22053066 3.3542988 16382457
2.1087747 0.19706339 3.3477669 16382457
2.1186943 0.60171157 3.3202057 16119285
2.1126592 0.58019012 3.3259833 16382457
2.0941339 0.52091444 3.3264477 16316664
2.089747 0.49959236 3.3328538 16514043
2.0846672 0.27336693 3.3350172 16448250
2.0873144 0.25003332 3.326195 16316664
2.0945683 0.22101501 3.3248258 16448250
2.1032465 0.1910449 3.324096 16514043
2.1080878 0.16969761 3.3171949 16448250
2.1157515 0.60655838 3.2949624 15790320
2.1073771 0.5805316 3.296483 15790320
2.0904655 0.52545029 3.2977288 15527148
2.0827985 0.2414186 3.3013587 16382457
2.086947 0.22036782 3.2952571 16316664
2.095458 0.19039243 3.2945502 16185078
2.1041632 0.16209677 3.2928743 16119285
2.1079121 0.1432597 3.2815685 16119285
2.1183507 0.62677258 3.2592502 15329769
2.1137128 0.61038703 3.2664194 14935011
2.0883288 0.52825695 3.2667856 14671839
2.0824168 0.21662197 3.2671578 15790320
2.089617 0.1899097 3.2648616 15724527
2.0991189 0.15976027 3.2644513 15527148
2.1053035 0.13964751 3.2608984 15527148
2.1175823 0.62684649 3.2407575 14211288
2.112448 0.60983223 3.2357566 13882323
2.0876105 0.52662551 3.2357984 13750737
2.0795872 0.21292663 3.2375329 15000804
2.0854952 0.19079247 3.234941 14935011
2.0950806 0.15996709 3.2349699 14935011
2.10268 0.13704327 3.2332737 14474460
2.1131873 0.60730606 3.2078977 12961221
2.1057031 0.58071172 3.20597 12566463
2.0969625 0.55132794 3.206387 12632256
2.0887825 0.52226532 3.206507 12500670
2.0843928 0.50169057 3.1978271 12105912
2.0781364 0.21281126 3.203326 13684944
2.0932026 0.16054392 3.2044961 13750737
2.1011257 0.13698281 3.2046981 13684944
2.114197 0.60132122 3.1864572 11776947
2.10991 0.58001435 3.1778741 11513775
2.1019771 0.55134916 3.1763246 11382189
2.0936058 0.52123326 3.1764309 11447982
2.086298 0.49253941 3.1750073 11316396
2.0828176 0.47032431 3.1667013 10921638
2.0785148 0.21714231 3.1736426 12895428
2.0941842 0.1600917 3.1746068 12763842
2.101285 0.1384571 3.1757898 12566463
2.1119506 0.57079279 3.1575751 10790052
2.1081712 0.54869741 3.1491375 10197915
2.1017237 0.52144998 3.1458654 10066329
2.0936024 0.49140999 3.1462255 10132122
2.0864682 0.461665 3.1463873 10263708
2.082649 0.43432176 3.1399269 10329501
2.0795455 0.40780291 3.13499 10329501
2.0757983 0.27140275 3.1329639 10921638
2.0771863 0.24773899 3.1413631 11447982
2.081337 0.22141159 3.1452827 11513775
2.0971246 0.16134015 3.1449549 11579568
2.1019275 0.14268628 3.1530871 11776947
2.1110847 0.53638887 3.1295431 9145227
2.1077623 0.51635778 3.123662 9276813
2.1032748 0.49012935 3.1169884 9211020
2.0965927 0.46154326 3.1162357 9276813
2.0901461 0.43157741 3.1161227 9539985
2.0849316 0.40167934 3.1158838 9539985
2.0817082 0.37264255 3.1140656 9539985
2.0798445 0.34177125 3.1122599 9868950
2.0791485 0.31106105 3.1124601 10132122
2.0796568 0.28143948 3.1150217 10197915
2.0824347 0.25234568 3.1157537 10592673
2.0876687 0.22170249 3.1151073 10658466
2.0944431 0.19167688 3.1147728 10724259
2.0996611 0.16865882 3.1193905 10987431
2.1076307 0.47888944 3.0989642 8355711
2.1048737 0.45842591 3.0940435 8487297
2.1011152 0.42993206 3.0881495 8487297
2.0969028 0.40149069 3.0854278 8684676
2.0925124 0.3717179 3.0854769 8816262
2.0892923 0.34171286 3.0864387 9013641
2.0880635 0.31181732 3.0867474 9211020
2.089143 0.2818723 3.0856891 9408399
2.0921915 0.25122586 3.0844562 9539985
2.0961313 0.22231928 3.0856481 9605778
2.0991025 0.19721952 3.0924339 9868950
2.1041887 0.39713985 3.0671401 7697781
2.1016889 0.36968836 3.0636649 8289918
2.0994554 0.34118089 3.0619757 8158332
2.0985181 0.3115685 3.0606942 8355711
2.0983906 0.28214574 3.0614986 8553090
2.0996087 0.25354791 3.0633941 8750469
2.1008937 0.23060459 3.0674624 8882055
2.1194186 1.4832959 2.9029489 16448250
2.1211562 1.4541503 2.9001729 16382457
2.1221442 1.424598 2.8977108 16382457
2.1229644 1.4049205 2.8971117 16777215
2.1050401 1.4822384 2.8802469 16448250
2.1085012 1.4525421 2.8796151 16448250
2.1114593 1.4225403 2.8800309 16448250
2.1133721 1.3924618 2.8801687 16316664
2.1142168 1.3627745 2.8786323 16448250
2.1150925 1.3330139 2.87673 16448250
2.1156943 1.3025345 2.8729813 16448250
2.1168644 1.2744825 2.8692391 16514043
2.1177788 1.2541361 2.865201 16185078
2.0942447 1.499072 2.8651977 16185078
2.0954561 1.4792243 2.861233 16448250
2.0962462 1.4512384 2.8545108 16250871
2.0972705 1.4225225 2.8504543 16316664
2.0992155 1.3926518 2.8503132 16382457
2.1015484 1.3625139 2.8506265 16316664
2.1066284 1.302875 2.8485444 16316664
2.1106076 1.2725132 2.8488104 16382457
2.1145191 1.2445792 2.8469605 16250871
2.1161885 1.2248045 2.8378217 15198183
2.0913651 1.414517 2.8336387 16448250
2.0918503 1.3906879 2.8301449 16514043
2.0923483 1.3612522 2.8236413 16448250
2.0944898 1.3331265 2.8201444 16448250
2.1097317 1.2427353 2.8191624 15724527
2.1140807 1.2221514 2.8166525 15132390
2.0889907 1.3276215 2.793962 16053492
2.0927982 1.3028525 2.7898428 15724527
2.1068611 1.2426037 2.7891476 14671839
2.1126511 1.221825 2.7890606 13948116
2.0528731 -1.2840831 2.7648563 16250871
2.05128 -1.3076633 2.7686884 16382457
2.0489745 -1.3374285 2.7718356 16316664
2.0469558 -1.3669356 2.774266 16316664
2.0452037 -1.3963131 2.7759011 16448250
2.0442011 -1.4261522 2.7761672 16382457
2.044265 -1.4559438 2.7754221 16382457
2.086617 1.3203746 2.7735102 15527148
2.0892839 1.3027161 2.7606769 14935011
2.0973754 1.2719636 2.759367 14145495
2.1065683 1.2423623 2.7591994 13487565
2.1122715 1.2244451 2.7628207 13224393
2.0520389 -1.2229441 2.7386003 16514043
2.0487914 -1.2477064 2.7441087 16382457
2.0446813 -1.276408 2.7477744 16382457
2.0407743 -1.3063776 2.7502391 16316664
2.0364199 -1.336053 2.7500451 16448250
2.0328665 -1.3660722 2.749748 16382457
2.030381 -1.3959138 2.7495594 16382457
2.0294931 -1.4258461 2.749229 16382457
2.030544 -1.4556686 2.749423 16316664
2.0883989 1.3010187 2.7300661 13882323
2.0971522 1.2734962 2.7298994 13290186
2.1075122 1.244959 2.729574 12566463
2.1128826 1.2266072 2.7429214 12500670
2.0535126 -1.1680584 2.7056592 15987699
2.0500233 -1.1888955 2.7143033 16382457
2.044023 -1.2163259 2.7197156 16382457
2.0356951 -1.2457896 2.7192898 16316664
2.0295012 -1.274587 2.7200868 16514043
2.0270486 -1.3045927 2.7257531 16316664
2.0245876 -1.3344413 2.7290497 16316664
2.0226321 -1.3640245 2.7312522 16382457
2.0210862 -1.3934342 2.7323043 16448250
2.0204377 -1.426126 2.7319398 16448250
2.0206726 -1.4578975 2.7294595 16382457
2.0832193 1.3207278 2.6881051 12829635
2.0887182 1.30326 2.699013 12895428
2.0997574 1.2732015 2.7000029 12434877
2.1086812 1.2510809 2.7010696 11908533
2.0534339 -1.1389834 2.6766627 16777215
2.0488138 -1.1592312 2.686552 16382457
2.0392518 -1.1861613 2.6894171 16382457
2.0301769 -1.2146438 2.691061 16316664
2.0253057 -1.2424349 2.6980536 16316664
2.0225625 -1.2637472 2.7030692 16777215
2.084085 1.3233081 2.668416 12566463
2.0917635 1.3034555 2.6694486 12171705
2.1038408 1.2744389 2.669842 11447982
2.1101897 1.2558219 2.6801095 11447982
2.048789 -1.131673 2.6559467 16382457
2.0392382 -1.155615 2.6602848 16382457
2.0281434 -1.1833662 2.6623333 16448250
2.0235226 -1.2064348 2.6713538 16316664
2.0858831 1.3292176 2.6389673 11579568
2.0966895 1.3038511 2.6401792 11184810
2.1066227 1.2811692 2.6419249 11053224
2.0503988 -1.1072007 2.6236389 16316664
2.0419314 -1.1259946 2.629463 16382457
2.0287406 -1.1539731 2.6318879 16382457
2.0232468 -1.1738826 2.6416011 16382457
2.0825078 1.3535631 2.603014 11645361
2.0897841 1.3336675 2.6095402 10921638
2.1025138 1.3058159 2.6112494 10461087
2.108743 1.2863272 2.62305 10592673
2.04599 -1.1005328 2.5980945 16382457
2.0321903 -1.1252911 2.6000793 16382457
2.0236104 -1.1457032 2.606801 16382457
2.0851133 1.3604093 2.5785072 10790052
2.0970788 1.3339384 2.5801504 10395294
2.1059678 1.3132557 2.5854523 10395294
2.0492375 -1.0782524 2.5628121 16448250
2.0405157 -1.0957817 2.5702863 16448250
2.0259299 -1.1208229 2.5719118 16382457
2.08214 1.3859153 2.5454657 10197915
2.0910797 1.3641804 2.55057 9934743
2.1025937 1.3391482 2.5533993 9803157
2.0458159 -1.0734299 2.5385735 16316664
2.0326631 -1.0951883 2.5409377 16382457
2.0220146 -1.114525 2.5452709 16448250
2.0799696 1.4128057 2.5094512 10000536
2.0864589 1.3931868 2.5189593 10000536
2.0995209 1.3660566 2.5209367 9605778
2.1061265 1.3466138 2.5312021 9803157
2.0415957 -1.0684893 2.5084748 16316664
2.0264602 -1.0932549 2.5109205 16250871
2.0190623 -1.1100576 2.5230536 16579836
2.0830202 1.4196926 2.4883885 10000536
2.0952799 1.3944979 2.4901164 9474192
2.1039255 1.3741004 2.496362 9211020
2.0470483 -1.0484465 2.4737356 15987699
2.0371406 -1.0653126 2.4799912 16053492
2.022682 -1.0889181 2.4816747 16185078
2.0803485 1.4459783 2.4548671 9737364
2.0896337 1.4244967 2.4605932 9671571
2.1011713 1.4008932 2.464036 9145227
2.0438421 -1.044293 2.4476399 16119285
2.0313411 -1.0647837 2.4507616 16053492
2.0195084 -1.0852072 2.4536831 15790320
2.0779884 1.4734161 2.4205694 9276813
2.0846698 1.4538279 2.4296393 9803157
2.0979626 1.427343 2.4323163 9474192
2.0405459 -1.0399742 2.4191787 15987699
2.0258629 -1.0645591 2.4202294 15527148
2.0169027 -1.081665 2.4260564 15395562
2.0080097 -1.4620339 2.4086719 6842472
2.076169 1.5016828 2.3877981 10329501
2.0814781 1.4813055 2.3986793 9605778
2.0939257 1.4548585 2.4006872 9539985
2.1018994 1.435003 2.4089479 9145227
2.0448437 -1.0181881 2.3758698 16777215
2.0373862 -1.0355843 2.3900197 15790320
2.021857 -1.0635136 2.3913481 15395562
2.0065086 -1.4036319 2.3748536 7171437
2.0098615 -1.4275024 2.3832245 6447714
2.0154364 -1.4546975 2.3886795 6776679
2.088932 1.4851304 2.3709605 9605778
2.09955 1.4617256 2.3741508 9408399
2.04234 -1.015852 2.3572206 15790320
2.0325742 -1.034518 2.3604701 15592941
2.0191338 -1.0610609 2.3618228 14935011
2.0082104 -1.3733926 2.3491642 6579300
2.0129352 -1.3960872 2.3566165 6710886
2.0206165 -1.4238816 2.3599854 6710886
2.0277894 -1.452204 2.3631971 6776679
2.0973227 1.48753 2.3422532 9474192
2.1027806 1.4682267 2.3545415 9934743
2.0391872 -1.0111616 2.3291192 15724527
2.0277243 -1.0344377 2.330518 15395562
2.0166187 -1.059222 2.3317599 14803425
2.0095778 -1.3385164 2.3218417 6447714
2.0151815 -1.3646669 2.3295639 6842472
2.0255847 -1.392487 2.3306432 6842472
2.0308957 -1.4190959 2.3382835 7105644
2.1008849 1.4955757 2.3196619 9671571
2.0420084 -0.98924124 2.2893231 15987699
2.03619 -1.0058137 2.2997746 15724527
2.0239639 -1.0335512 2.3012505 15000804
2.0142081 -1.0584927 2.3008852 14408667
2.0072455 -1.2809783 2.2886202 6645093
2.0109975 -1.3059946 2.2967131 6645093
2.0191216 -1.3333813 2.2993352 6710886
2.0272353 -1.3607764 2.3038967 6710886
2.0317535 -1.381438 2.3112311 7566195
2.0398831 -0.98358244 2.2680101 15921906
2.0315344 -1.0042522 2.2704012 15592941
2.0202761 -1.0337359 2.2713027 14671839
2.0127094 -1.0571823 2.2708409 14079702
2.0061777 -1.22653 2.2579391 6842472
2.0086172 -1.2467172 2.2637253 6776679
2.0136943 -1.274025 2.2692671 6776679
2.0227735 -1.3034068 2.2704055 6645093
2.0293713 -1.3293611 2.276552 6710886
2.0364916 -0.9774611 2.2390983 15658734
2.0111022 -1.0589204 2.240808 13684944
2.0073564 -1.1876037 2.2314725 8487297
2.010021 -1.2145152 2.2387545 7631988
2.0164175 -1.2435955 2.2406127 6842472
2.0254984 -1.2728653 2.2402773 6710886
2.0304406 -1.2966994 2.2485337 6842472
2.0385618 -0.95410532 2.2047744 15461355
2.0325298 -0.97386014 2.21035 15395562
2.0100458 -1.0629032 2.210619 13027014
2.0074413 -1.090955 2.2027011 11908533
2.0071084 -1.1244045 2.2021465 10658466
2.0081949 -1.1545622 2.2085569 9671571
2.0118823 -1.1832402 2.2107203 8684676
2.018564 -1.2132782 2.2099595 7697781
2.0265429 -1.2422329 2.2112217 6908265
2.0313137 -1.2635157 2.2177339 6645093
2.0359786 -0.94851255 2.1791518 15329769
2.0087872 -1.0929055 2.181052 11513775
2.026454 -1.2126192 2.1803989 7829367
2.0308497 -1.2342607 2.1894159 7368816
2.0619175 0.095537864 2.1442437 16185078
2.0603223 0.07499586 2.1490555 15987699
2.0597255 0.048034608 2.1489086 16053492
2.0603681 0.027486738 2.1432586 15329769
2.0376487 -0.92706984 2.1398075 15329769
2.0336289 -0.94369811 2.1504278 14606046
2.0298922 -1.2047255 2.1546617 8553090
2.0614417 0.12511699 2.1137176 15263976
2.0582898 0.10435722 2.1238651 15790320
2.0537808 0.075877562 2.1256342 15790320
2.0532393 0.046743408 2.1255326 15658734
2.0566761 0.018585343 2.1227031 15395562
2.058558 -0.00079052709 2.1118674 14935011
2.0363586 -0.92488176 2.1190865 14277081
2.0313816 -0.94285411 2.1210642 14079702
2.0285351 -1.1780596 2.1235309 7960953
2.0583045 0.13072839 2.092356 15198183
2.0516925 0.10600061 2.0956256 15395562
2.0506046 0.016824774 2.0949957 14540253
2.0555942 -0.0063698683 2.0917039 14606046
2.0350494 -0.92390019 2.0908546 13750737
2.030308 -0.94341719 2.0908227 13027014
2.0280845 -1.1494316 2.0951991 8158332
2.0595241 0.15391943 2.0562778 14869218
2.0541785 0.13581334 2.0649641 15132390
2.0520232 -0.012274489 2.0642645 14013909
2.0555825 -0.03095483 2.0548065 13816530
2.0345514 -0.92468661 2.0649519 13027014
2.031033 -0.94317132 2.060323 12303291
2.0262735 -0.97308826 2.061173 11447982
2.0235074 -1.063128 2.060977 8816262
2.0263944 -1.0919784 2.0614433 8224125
2.028851 -1.1182884 2.0681481 7500402
2.0568373 0.15780082 2.0333314 14277081
2.0486553 0.13608953 2.0353532 14474460
2.0478587 -0.012792241 2.034847 13487565
2.0535185 -0.03408378 2.0327106 13355979
2.0322523 -0.9462418 2.0355728 11645361
2.0298336 -0.97302288 2.0315256 10855845
2.0283058 -1.0028774 2.0318201 9934743
2.0280502 -1.0319688 2.034102 9276813
2.0288746 -1.0603296 2.0383465 8684676
2.0301564 -1.0810988 2.0424407 8158332
2.0544627 0.16367394 2.0042927 14211288
2.0515058 -0.03735349 2.0040607 12829635
2.0320432 -0.97958702 2.0149786 9408399
2.0317187 -0.99237585 2.0149331 9474192
2.057816 0.18384701 1.9627264 12566463
2.0518224 0.1671584 1.9748249 14013909
2.0496733 -0.037840955 1.9744608 12434877
2.0559971 0.18485329 1.9435353 13619151
2.0485256 0.16768426 1.9455249 13619151
2.0486209 -0.037809603 1.9444382 12105912
2.0539532 0.18666413 1.9146918 13355979
2.0456803 0.16759822 1.9158154 13421772
2.0479987 -0.036190037 1.9150174 11513775
2.0523136 0.18827093 1.8855244 13092807
2.047709 -0.033329561 1.8857443 11447982
2.0509484 0.18948472 1.8547151 13092807
2.0421798 -0.011693768 1.8549511 11250603
2.0477641 -0.030253407 1.8597078 11184810
2.0497229 0.18979704 1.825428 12829635
2.0430663 -0.0097410306 1.8255228 10855845
2.0488517 0.19007096 1.7960631 12500670
2.0435255 -0.0054599866 1.7959547 10790052
2.0475402 0.18871081 1.7656021 12763842
2.0375023 0.018477805 1.7649384 10921638
2.0439787 -0.00095902383 1.7672999 10526880
2.0470822 0.18874568 1.7365456 12434877
2.039557 0.16864321 1.7358501 12303291
2.0391555 0.019014454 1.7351116 10724259
2.0444276 0.0024303412 1.7443254 10526880
2.0462193 0.18771246 1.7057593 12566463
2.0394013 0.16886619 1.705691 12434877
2.0397601 0.022025971 1.7056942 10855845
2.0454686 0.18698999 1.6767495 12434877
2.0391865 0.16920704 1.6756709 12369084
2.0399623 0.025438298 1.6760554 10790052
2.0446694 0.18667781 1.645478 12303291
2.0386496 0.16916981 1.6457461 12434877
2.0338039 0.048783604 1.6452222 11513775
2.039876 0.028413899 1.6461792 11053224
2.0437965 0.18698287 1.6155734 12566463
2.0378036 0.16943321 1.6157039 12763842
2.0339289 0.0489957 1.615365 11711154
2.0396421 0.03015361 1.6157074 11250603
2.0422928 0.18703681 1.5851594 13027014
2.0364177 0.16958901 1.5857996 12829635
2.0333581 0.04900343 1.5853515 11908533
2.0387745 0.031495757 1.5869143 11974326
2.0404935 0.18815273 1.5540365 12961221
2.034296 0.16963845 1.5557007 13224393
2.0318108 0.049218912 1.5551485 12237498
2.0374732 0.031005576 1.5533725 11776947
2.0354621 0.029480301 1.5233736 12434877
2.1540613 0.51254719 3.5311599 16382457
2.1488879 0.48843998 3.5346079 16382457
2.1463885 0.3084527 3.5336707 16448250
2.1490643 0.2860105 3.5258489 16448250
2.1115167 -1.2618915 3.5325575 14013909
2.1002448 -1.2805929 3.5277796 13619151
2.0871506 -1.3035253 3.5248551 13487565
2.1536479 0.54100269 3.4992778 16316664
2.1484501 0.51862943 3.5044301 16448250
2.131875 0.42925176 3.5056887 16316664
2.1299887 0.39910758 3.504519 16448250
2.13094 0.36873278 3.5056093 16382457
2.1375592 0.30942243 3.5037634 16382457
2.1437049 0.27974904 3.5031171 16382457
2.1467063 0.25746942 3.4951925 16514043
2.1055684 -1.2845379 3.4994955 12698049
2.091737 -1.3099688 3.4973941 12303291
2.0833273 -1.3325038 3.4902477 11842740
2.1531074 0.56984478 3.4671428 16316664
2.1480072 0.54826653 3.4746516 16448250
2.1390302 0.51900035 3.4749045 16448250
2.1313739 0.48924661 3.4750147 16448250
2.1268263 0.46099991 3.4776165 16250871
2.1247444 0.4302775 3.483021 16382457
2.1237681 0.3986716 3.4851556 16448250
2.1234195 0.36827964 3.4825451 16382457
2.1240849 0.33763701 3.4768105 16448250
2.1276145 0.30872735 3.4745841 16382457
2.1337306 0.27885145 3.4741094 16382457
2.1407139 0.24969938 3.4727697 16316664
2.1444876 0.22717935 3.4651439 16579836
2.1088765 -1.2917564 3.4770274 12303291
2.1016045 -1.3116382 3.4683402 11579568
2.0893309 -1.3397688 3.4675944 11053224
2.0831528 -1.3677672 3.4618349 10066329
2.0801833 -1.398506 3.4569588 9539985
2.0787692 -1.4300832 3.4551239 9079434
2.0783546 -1.4609464 3.4557981 8816262
2.1530762 0.59880549 3.4356432 16250871
2.1480601 0.5778448 3.4439845 16448250
2.1381497 0.54907644 3.4452662 16448250
2.1293583 0.51986641 3.4459593 16382457
2.1249185 0.49378198 3.4531279 16514043
2.1204004 0.30539924 3.4535098 16448250
2.1230524 0.27868146 3.4456577 16382457
2.1297917 0.24934766 3.44397 16448250
2.1384096 0.2191346 3.4430373 16316664
2.1429148 0.19590297 3.4358106 16316664
2.1068237 -1.3196719 3.4460998 11250603
2.1009808 -1.3416623 3.4388394 10461087
2.0933852 -1.3701706 3.4375522 9671571
2.0890713 -1.4001693 3.4367821 9079434
2.0868595 -1.4298474 3.437094 8750469
2.0869222 -1.4602047 3.4364672 8421504
2.1534197 0.62869459 3.4030671 15461355
2.1484046 0.60755372 3.4130206 16448250
2.1384823 0.5794909 3.4151137 16316664
2.1285362 0.55051225 3.4162683 16448250
2.1247468 0.528929 3.4251399 16382457
2.1177554 0.2682074 3.4257901 16448250
2.1201477 0.24667096 3.4176755 16382457
2.1263664 0.21986753 3.413476 16448250
2.1356266 0.19022575 3.4131076 16448250
2.1406217 0.16701108 3.4059517 16316664
2.1065409 -1.3505751 3.4202104 10263708
2.1035199 -1.3724045 3.4152908 9145227
2.1011193 -1.4006943 3.411561 8882055
2.0992386 -1.4305013 3.4111421 8487297
2.0992272 -1.459934 3.4104667 8289918
2.1526895 0.65549827 3.3713894 16777215
2.1492352 0.63635826 3.3826175 16514043
2.1395664 0.60938191 3.3850293 16382457
2.1291246 0.5802629 3.3861752 16382457
2.1239445 0.55895215 3.3937187 16250871
2.1157255 0.23665366 3.3989034 16777215
2.117542 0.21593827 3.3876269 16448250
2.1245205 0.18927112 3.3839467 16448250
2.134156 0.1593028 3.3828912 16382457
2.1389484 0.13673413 3.3752956 16579836
2.1497319 0.66474038 3.3517289 16382457
2.1414635 0.63945299 3.3551991 16382457
2.1303556 0.60969585 3.3551192 16316664
2.1239998 0.58740509 3.3612657 16382457
2.1129408 0.20543006 3.3671825 16777215
2.1158817 0.18625122 3.3582113 16316664
2.1226788 0.16046956 3.3530777 16448250
2.1327672 0.13068675 3.3526156 16514043
2.1375566 0.1093756 3.3451071 16448250
2.1501155 0.69448978 3.3197446 16316664
2.133198 0.63948083 3.3250103 16448250
2.1246338 0.61318213 3.3282447 16316664
2.1117027 0.17812404 3.3378987 16316664
2.1147008 0.1577763 3.3259449 16316664
2.1236184 0.1297448 3.3234091 16382457
2.1330669 0.10114033 3.3220868 16448250
2.1364272 0.082168721 3.3116515 16514043
2.1496296 0.72366303 3.2894273 16382457
2.1270518 0.63995284 3.2955365 15921906
2.1217136 0.62158406 3.3000865 15987699
2.11064 0.14912948 3.3018086 16119285
2.1156685 0.12916777 3.293654 16053492
2.1257901 0.099853016 3.2931395 16119285
2.1333485 0.076229408 3.2905941 15856113
2.1500645 0.75225121 3.2609949 16316664
2.145679 0.7302345 3.2647929 16250871
2.1235118 0.64170772 3.2660453 15461355
2.1195292 0.62395185 3.2806969 15658734
2.110872 0.1263373 3.2656908 15461355
2.1194293 0.10088352 3.2629712 15527148
2.1300027 0.070869014 3.2624221 15263976
2.1343548 0.053007722 3.2481141 14211288
2.1502779 0.77827853 3.224165 16185078
2.1470437 0.75929677 3.2347796 15790320
2.1217506 0.64154452 3.2355766 14277081
2.1079254 0.12275951 3.2346559 14606046
2.1155674 0.1012848 3.2335465 14540253
2.1269405 0.070181668 3.2329328 14211288
2.1331618 0.053074967 3.2320664 14013909
2.1486282 0.78170252 3.2038198 15132390
2.1437321 0.75945771 3.2053614 15000804
2.1225841 0.64097816 3.2060778 13158600
2.1176288 0.6206463 3.2014537 12763842
2.1063118 0.1225144 3.2042632 13224393
2.114042 0.10146306 3.2035625 13487565
2.1258345 0.070404038 3.2030308 13290186
2.1323702 0.053197823 3.2075915 12698049
2.1474717 0.78413969 3.1755657 14408667
2.1431048 0.76034266 3.1755273 13948116
2.119323 0.61194628 3.1745458 11842740
2.115299 0.58974642 3.1652458 11184810
2.1063137 0.12502968 3.172991 12369084
2.1149936 0.10160679 3.1734977 12434877
2.1263614 0.072458282 3.1738584 12303291
2.1473722 0.78188503 3.1515749 13290186
2.1449695 0.75974011 3.1465807 12961221
2.1430511 0.730165 3.1462271 12171705
2.1418135 0.70023912 3.145721 11776947
2.1385074 0.67024356 3.1450689 10987431
2.1330247 0.64086938 3.145524 10592673
2.1260538 0.61044323 3.1453385 10461087
2.1188848 0.58190918 3.1445105 10197915
2.1145639 0.55826098 3.1372952 10000536
2.1030843 0.14782342 3.1344454 11645361
2.1083474 0.12899497 3.1430373 11316396
2.1189146 0.10067241 3.143368 11316396
2.127506 0.078399092 3.1451616 11316396
2.1464925 0.74936306 3.1297159 12566463
2.14609 0.7349084 3.1296444 12171705
2.1448944 0.69012201 3.1294358 11053224
2.1430347 0.66677278 3.1262641 10395294
2.1398566 0.63835049 3.1210577 9737364
2.1357458 0.61042696 3.1157537 9276813
2.1285574 0.58072025 3.1153514 9145227
2.1202326 0.55075169 3.1157269 9079434
2.1148543 0.52389956 3.1106453 8947848
2.1110251 0.50042099 3.104265 9211020
2.105197 0.15674198 3.1111264 10526880
2.1135395 0.13048285 3.1135888 10395294
2.1240244 0.10219094 3.1142542 10197915
2.1293755 0.083537504 3.1235695 10855845
2.1403286 0.59995604 3.0980072 8355711
2.1374216 0.57816148 3.092474 8553090
2.1325114 0.54983807 3.0865924 8224125
2.1252084 0.52084363 3.0853021 8092539
2.1174543 0.4912999 3.0845494 8289918
2.1123445 0.46265921 3.0797403 8289918
2.1088891 0.43749541 3.0742013 8618883
2.102459 0.20979142 3.0733423 9145227
2.1051993 0.18853596 3.0797708 9474192
2.1112108 0.16159239 3.0842364 9671571
2.1212752 0.13157365 3.083703 9605778
2.1273308 0.10947916 3.0910044 9539985
2.1386671 0.54023653 3.0681827 7368816
2.1348629 0.51744813 3.0635858 7303023
2.1303639 0.48957443 3.057559 7368816
2.1242995 0.46113935 3.0550659 7237230
2.1171257 0.43123886 3.0550704 7434609
2.1121919 0.40218726 3.0529284 7763574
2.1093574 0.37278059 3.0487304 7829367
2.1067984 0.34203508 3.0465655 7763574
2.1054163 0.31118411 3.0454564 8092539
2.1050889 0.28047317 3.0462704 7960953
2.1060536 0.24994287 3.0487392 8092539
2.1079178 0.22101885 3.0538735 8553090
2.1140149 0.19075263 3.0537717 8750469
2.1215599 0.1615116 3.0542424 8684676
2.1261234 0.13846745 3.0614741 8947848
2.1337945 0.45657915 3.0355303 6974058
2.1296625 0.42909959 3.0309134 7303023
2.1259789 0.40032595 3.0262542 7039851
2.1219277 0.37131873 3.0241857 7303023
2.1174965 0.34126753 3.025212 7368816
2.1153893 0.31123391 3.0250561 7697781
2.1151299 0.28133258 3.024817 7960953
2.1166842 0.25165391 3.0248027 8092539
2.1210241 0.22108299 3.0234041 8092539
2.1240983 0.19325098 3.0281172 8026746
2.1270893 0.16993013 3.0344892 8289918
2.1305637 0.3653262 3.0064354 6974058
2.1285572 0.34012794 3.0039916 7105644
2.1271493 0.31057885 3.0020654 7039851
2.126405 0.28161365 3.0021183 7237230
2.1267321 0.25240961 3.0036988 7631988
2.1280067 0.22964102 3.0056741 7434609
2.1456926 1.4815552 2.9368701 16448250
2.1470211 1.4519259 2.9343483 16382457
2.1480186 1.4219266 2.9325638 16316664
2.1485667 1.3919386 2.9314883 16448250
2.1490273 1.361205 2.9309988 16382457
2.1484768 1.3318979 2.9296269 16382457
2.1487286 1.3011817 2.9294078 16448250
2.1477277 1.2719588 2.9272332 16448250
2.1479049 1.2416137 2.9263096 16382457
2.1481948 1.2127465 2.9248633 16579836
2.148675 1.1918612 2.9236422 16185078
2.1301806 1.4810693 2.9174812 16448250
2.1312952 1.4509199 2.914 16382457
2.1321156 1.4215046 2.9116049 16514043
2.1325507 1.3918741 2.9099762 16316664
2.133132 1.3616984 2.9089999 16448250
2.1339159 1.3318065 2.9085073 16382457
2.135186 1.3014973 2.9086154 16514043
2.1359289 1.2715993 2.9075232 16514043
2.1377914 1.2415431 2.9076405 16448250
2.1400921 1.211143 2.9076636 16448250
2.1423798 1.18176 2.9064603 16448250
2.1445324 1.1534125 2.9027534 16382457
2.1457531 1.1327804 2.8961415 16645629
2.1223419 1.3634552 2.8929615 16514043
2.1225407 1.3298841 2.890254 16382457
2.1229427 1.3010076 2.8875735 16448250
2.1234493 1.2706784 2.8835361 16448250
2.1247125 1.2417125 2.8791351 16382457
2.1284432 1.2119333 2.8786964 16382457
2.1326475 1.1816212 2.8769267 16382457
2.1383924 1.1514556 2.8775666 16119285
2.1434011 1.1264821 2.876013 15658734
2.1188273 1.2340082 2.8581853 16448250
2.1209011 1.2117475 2.848856 15921906
2.1345587 1.151242 2.8476777 14737632
2.1414602 1.1255586 2.8477111 14408667
2.0855329 -1.288484 2.8243437 16185078
2.0837717 -1.310427 2.8263025 16514043
2.0816095 -1.3386576 2.8286679 16448250
2.0795538 -1.3682235 2.8312953 16316664
2.0781479 -1.39731 2.8344452 16448250
2.0772579 -1.4273773 2.83603 16448250
2.0767291 -1.4574561 2.8354785 16448250
2.1181827 1.2068194 2.8191195 14803425
2.1248345 1.1820163 2.8181508 14408667
2.133769 1.1525489 2.81774 13553358
2.141201 1.1293575 2.8194261 13027014
2.0868211 -1.1966034 2.7949202 16711422
2.084162 -1.2202339 2.7998912 16514043
2.0810673 -1.2484972 2.8043375 16382457
2.0778203 -1.277787 2.8072755 16316664
2.0734971 -1.3073123 2.8072264 16448250
2.0700796 -1.3367864 2.8079898 16382457
2.0663564 -1.3669842 2.8078303 16316664
2.0634556 -1.3972231 2.8082275 16382457
2.0622454 -1.4269134 2.8087847 16382457
2.0621278 -1.4567671 2.8085139 16448250
2.1173587 1.2066175 2.7882085 13816530
2.1253157 1.1824225 2.7883177 13355979
2.136245 1.1524576 2.7876756 12369084
2.1417108 1.1343441 2.7979729 12171705
2.0842745 -1.1629999 2.7694912 16316664
2.0806205 -1.1883802 2.7772517 16448250
2.0743415 -1.2171876 2.7788742 16382457
2.067575 -1.246801 2.7782323 16382457
2.0622995 -1.276051 2.7786527 16382457
2.0595279 -1.305921 2.7822402 16382457
2.0576663 -1.3365493 2.786279 16382457
2.0557673 -1.3657616 2.7890189 16382457
2.0537298 -1.3962504 2.790751 16514043
2.052371 -1.4274302 2.790828 16053492
2.0523374 -1.4582046 2.7901447 16382457
2.118037 1.2096403 2.7575638 12763842
2.1285427 1.182403 2.7581058 12171705
2.1381094 1.1587571 2.7595713 11513775
2.0834675 -1.1331207 2.7435434 16448250
2.0765655 -1.1572183 2.7476404 16514043
2.0675945 -1.1868273 2.7491179 16316664
2.0607886 -1.2152549 2.7515705 16382457
2.0572524 -1.2431197 2.757997 16316664
2.0548222 -1.2637774 2.7615147 16711422
2.1137638 1.2313465 2.7215049 11974326
2.1205273 1.2127559 2.7287004 11842740
2.1336286 1.1830778 2.7284241 10987431
2.1401043 1.1643671 2.7376842 11119017
2.0834925 -1.1048248 2.7124465 16316664
2.0760052 -1.1269541 2.7189333 16382457
2.0641234 -1.1561431 2.7186787 16448250
2.0582316 -1.1823115 2.726553 16448250
2.055115 -1.2024273 2.7333174 16777215
2.1158152 1.2365296 2.696696 11776947
2.1266332 1.2126265 2.6981044 11053224
2.1366799 1.1905499 2.7011282 10592673
2.0844016 -1.0795072 2.6780245 16316664
2.0777295 -1.0983788 2.687428 16382457
2.0647697 -1.126147 2.6897228 16448250
2.0573356 -1.1481657 2.6957371 16448250
2.1122017 1.2609088 2.6597867 11119017
2.119236 1.2425009 2.6683826 10724259
2.1326067 1.2151316 2.6698143 10395294
2.1394017 1.1959456 2.6813071 9079434
2.0803576 -1.0744545 2.6567268 16514043
2.0686326 -1.0965315 2.6588831 16448250
2.0577626 -1.119768 2.6633699 16448250
2.1150649 1.2669913 2.6365607 10526880
2.1273091 1.2429891 2.6381934 10132122
2.1361482 1.2223541 2.6452572 9868950
2.0835824 -1.0495929 2.6146944 16053492
2.0753634 -1.0680058 2.6278477 16382457
2.0606332 -1.0940175 2.6311219 16448250
2.0539396 -1.1124827 2.6426888 16448250
2.1115808 1.2932166 2.6014595 9803157
2.1200223 1.2731631 2.6086619 10000536
2.1329684 1.2488126 2.6105871 9803157
2.0799873 -1.0469599 2.5958841 16514043
2.0677159 -1.0662633 2.5987637 16382457
2.055783 -1.0871172 2.6033068 16448250
2.1088183 1.3188375 2.5670302 9671571
2.1158233 1.3000948 2.5767293 9605778
2.1287434 1.2750862 2.5795243 9408399
2.1361251 1.2558024 2.5901921 9342606
2.0757494 -1.0416046 2.5671639 16448250
2.0608418 -1.064415 2.5704737 16448250
2.0522113 -1.0822649 2.5816703 16316664
2.112191 1.3263986 2.5455534 9539985
2.123785 1.3039857 2.54878 9079434
2.1336868 1.2827904 2.5544932 9145227
2.0805702 -1.0201336 2.5268116 16645629
2.0710559 -1.0370513 2.5379488 16316664
2.056144 -1.0595148 2.5414574 16448250
2.1100147 1.3539317 2.5098507 8816262
2.118222 1.333042 2.5192013 9211020
2.1307592 1.3096957 2.5223091 9013641
2.0774863 -1.0171015 2.5062916 16185078
2.0644393 -1.036059 2.5096271 16316664
2.0522535 -1.0546582 2.5131307 16250871
2.1074667 1.3804197 2.4771874 8882055
2.1146231 1.3616104 2.4868987 9013641
2.1274102 1.3365749 2.4913945 8882055
2.1349628 1.3168528 2.5019648 8947848
2.0735028 -1.0126655 2.4780214 16185078
2.0584693 -1.0341034 2.4804339 16119285
2.0495281 -1.0505704 2.4907968 16711422
2.1111131 1.3887014 2.4560568 9013641
2.1238344 1.3647825 2.4599996 8684676
2.1325355 1.3445901 2.4678237 8553090
2.0693905 -1.0079777 2.4488556 16316664
2.0539751 -1.0300949 2.4505785 16185078
2.1086481 1.4147772 2.4233699 9276813
2.1194048 1.3935995 2.4287694 8816262
2.1300762 1.3723402 2.4347675 8750469
2.0751019 -0.98722315 2.4138219 16053492
2.063803 -1.005455 2.4198821 16185078
2.0502808 -1.025591 2.4215517 16185078
2.1056838 1.4418534 2.387876 9342606
2.1137373 1.4224478 2.3982763 8947848
2.1272264 1.3993424 2.4014328 8750469
2.071305 -0.98191601 2.387624 16448250
2.0562699 -1.0054048 2.3897097 16119285
2.0474074 -1.0223253 2.3991888 16316664
2.1095581 1.4485842 2.3664408 9342606
2.1226044 1.4255674 2.370563 9276813
2.1314292 1.4067278 2.3803153 8158332
2.075098 -0.95863402 2.348177 15987699
2.0666919 -0.97654241 2.358659 16316664
2.0519302 -1.0013425 2.3611374 16119285
2.037431 -1.460034 2.3497612 6776679
2.1061954 1.4757206 2.3331132 9803157
2.1160605 1.4541329 2.3395381 9342606
2.1280565 1.4328127 2.3434234 9539985
2.0712593 -0.95380104 2.3262658 16382457
2.0596097 -0.97495985 2.3296974 16316664
2.0476129 -0.99694705 2.3319798 16053492
2.0368195 -1.4031287 2.3178854 6447714
2.0405731 -1.4266171 2.3258274 6381921
2.0484293 -1.4547544 2.3279014 6776679
2.1038587 1.5032755 2.2996883 9934743
2.1106021 1.4830768 2.3081622 9737364
2.123642 1.4574664 2.3114924 9605778
2.0731912 -0.92934912 2.2877462 16579836
2.0664632 -0.94726741 2.2983017 16382457
2.0523262 -0.97411436 2.3005733 16185078
2.0443783 -0.99194157 2.305814 15921906
2.0380342 -1.3698572 2.2914097 6908265
2.0453749 -1.3952116 2.2975762 6579300
2.0539329 -1.4236463 2.3011158 6579300
2.0588524 -1.45005 2.3075247 6513507
2.1188869 1.4843807 2.2791243 9868950
2.1278148 1.4645797 2.285388 9803157
2.069546 -0.92216754 2.2658958 16382457
2.059233 -0.94464529 2.2699654 16250871
2.0469873 -0.97003061 2.2719228 16053492
2.0346065 -1.3157872 2.2550454 7566195
2.0389128 -1.3370999 2.2642241 6645093
2.0485811 -1.3641703 2.2681773 6645093
2.0568738 -1.391071 2.2750013 6645093
2.0611942 -1.4111083 2.2815495 6776679
2.1241729 1.4885993 2.2509906 10658466
2.070703 -0.89606732 2.2304764 16514043
2.0641699 -0.91547775 2.2390246 16382457
2.0512168 -0.94405788 2.2403779 16185078
2.0433776 -0.96394956 2.2451065 15987699
2.0348294 -1.2846884 2.2285247 6645093
2.0400007 -1.3063475 2.2360826 6776679
2.0503886 -1.334209 2.2393034 6710886
2.0578766 -1.3572865 2.2449851 6908265
2.1269798 1.4949682 2.22402 11119017
2.0940173 0.12444142 2.2029946 16514043
2.0907397 0.10423247 2.2073734 16382457
2.0882399 0.074806973 2.2113919 16382457
2.0876906 0.045595273 2.2107711 16448250
2.0892482 0.017691646 2.2056327 16514043
2.0917175 -0.0039239731 2.2005816 16053492
2.0668418 -0.88815337 2.2073009 16382457
2.0561879 -0.91428679 2.2105749 16250871
2.0450904 -0.94146937 2.2118502 15921906
2.0348618 -1.254241 2.1985574 6316128
2.0397711 -1.2756906 2.2077806 6513507
2.0512769 -1.3039141 2.2086792 6645093
2.0575438 -1.3260098 2.2169743 6776679
2.0931206 0.15555257 2.1748347 16514043
2.0875759 0.13327649 2.1830573 16382457
2.0791414 0.10519645 2.1839113 16382457
2.0744681 0.075605407 2.1850114 16514043
2.0736468 0.045647707 2.1841662 16382457
2.0784476 0.014720445 2.1835208 16382457
2.0849705 -0.013847735 2.1822884 16448250
2.0882382 -0.039083954 2.1745865 16448250
2.0684609 -0.86257559 2.1752644 16250871
2.0607543 -0.88443357 2.1800463 16119285
2.0490227 -0.91394401 2.1809552 15724527
2.041599 -0.93492508 2.1833849 15658734
2.0332131 -1.2250973 2.1696508 7829367
2.038444 -1.2455212 2.1772833 6842472
2.0494452 -1.2740384 2.1787159 6842472
2.0576179 -1.2966942 2.1841931 6381921
2.0946939 0.18257821 2.1405487 15658734
2.0886781 0.16359922 2.1521425 15921906
2.0775726 0.13610649 2.1548131 16053492
2.0681822 0.10676382 2.1554708 16185078
2.0652735 0.077704042 2.1632547 16382457
2.0645437 0.044536479 2.1628981 16250871
2.0668213 0.015063811 2.1551669 15856113
2.0736337 -0.014264682 2.1536784 15790320
2.0815661 -0.043873731 2.1530581 15724527
2.0863605 -0.067048542 2.1477983 15395562
2.0698237 -0.83853078 2.1387644 15592941
2.0648968 -0.85626489 2.1488876 15592941
2.0546846 -0.88354003 2.1505537 15263976
2.043906 -0.91290724 2.1511006 15000804
2.039484 -0.92940485 2.1600134 15000804
2.0356092 -1.2172734 2.1470506 8224125
2.0450754 -1.2434949 2.1488199 7697781
2.0552979 -1.2691892 2.1508725 7171437
2.0910103 0.18651947 2.1202908 15461355
2.0815263 0.16590118 2.1243746 15592941
2.0693216 0.13735244 2.1256006 15724527
2.0642624 0.11700045 2.1335218 15790320
2.0617433 0.0085703563 2.1331837 15263976
2.0652528 -0.013934318 2.1248386 15198183
2.0729723 -0.043495763 2.1232419 15132390
2.0814931 -0.073781922 2.1232986 14935011
2.0854661 -0.095284991 2.1146526 14935011
2.0675669 -0.83307755 2.1170423 15329769
2.060468 -0.8540203 2.1204062 15132390
2.0497663 -0.88415545 2.1205287 14869218
2.0409994 -0.91033787 2.1210802 14408667
2.0340817 -1.1899966 2.1156263 7829367
2.0410945 -1.2134973 2.1192403 7237230
2.0522447 -1.2424303 2.1198156 6974058
2.0580747 -1.2622355 2.1284788 6645093
2.0867155 0.19176811 2.0926881 15132390
2.0735412 0.16554469 2.0945711 15263976
2.0648363 0.14391017 2.0985134 15198183
2.0606315 -0.020720493 2.0976348 14671839
2.065984 -0.042956527 2.0935154 14540253
2.0746119 -0.073593684 2.0935905 14474460
2.0822725 -0.10203867 2.0913525 14277081
2.0847764 -0.12024335 2.0788255 13750737
2.0686123 -0.80739051 2.0760117 15461355
2.0649092 -0.82607853 2.0884404 15132390
2.0561845 -0.85342139 2.0906501 14869218
2.0392349 -0.90837526 2.0908542 13684944
2.0335107 -1.1575431 2.0831885 7566195
2.0395696 -1.1837825 2.0895329 7105644
2.0500393 -1.2136518 2.0897157 6710886
2.0565956 -1.235286 2.0961254 6579300
2.0904858 0.21313077 2.0578704 14671839
2.0817752 0.19506001 2.0643179 14803425
2.0673635 0.16664478 2.0659316 14803425
2.062119 0.14920142 2.0775373 15198183
2.057724 -0.026604127 2.0748758 13750737
2.0609336 -0.0443017 2.064395 13882323
2.0690577 -0.073517375 2.0638301 13948116
2.0776308 -0.10399481 2.0633247 14013909
2.0824339 -0.12413243 2.0594227 13948116
2.0665026 -0.80292374 2.0562248 15263976
2.0612829 -0.82378131 2.0605531 14737632
2.0378149 -0.91027081 2.0599051 13027014
2.0315852 -1.1017451 2.0485997 7500402
2.0342469 -1.1261988 2.0563049 7237230
2.040175 -1.1532525 2.0593114 6908265
2.0495172 -1.1829989 2.0596411 6447714
2.0550938 -1.2058191 2.0667427 6513507
2.0874209 0.21681517 2.0329471 14277081
2.0759444 0.19585231 2.034719 14408667
2.064245 0.1730274 2.0361049 14474460
2.0583315 -0.049836986 2.0353703 13355979
2.0650001 -0.074284516 2.0337055 13487565
2.0731266 -0.10324109 2.0331907 13487565
2.0800171 -0.12965387 2.031868 13421772
2.0667617 -0.77738953 2.0177836 14540253
2.0641463 -0.79611349 2.029305 14803425
2.0575016 -0.82395774 2.0303302 14408667
2.037843 -0.91272318 2.0305185 12434877
2.0344551 -0.93766809 2.0243773 11579568
2.0327284 -0.95974308 2.0178704 10724259
2.0319521 -1.0367914 2.019402 8553090
2.0336397 -1.065153 2.0234923 8026746
2.0361989 -1.0939355 2.0296855 7434609
2.0424693 -1.122833 2.0298028 6842472
2.0506303 -1.1525874 2.0299551 6579300
2.0557053 -1.1766528 2.0372779 6250335
2.0847237 0.22157958 2.0037413 14013909
2.0712261 0.19736177 2.0046511 14211288
2.0614538 0.17793038 2.0070331 14211288
2.0559962 -0.052768052 2.0048037 12829635
2.0776529 -0.13245291 2.0023661 13158600
2.0651581 -0.76939934 1.9970737 14935011
2.0608604 -0.7937271 2.0001879 14211288
2.0365813 -0.94316226 2.0010517 10724259
2.035114 -0.97257274 2.0003958 9934743
2.0351636 -1.003404 2.0004835 9211020
2.037179 -1.0331479 1.9999489 8355711
2.040926 -1.0630003 1.9998077 7500402
2.0463989 -1.0928819 1.9999819 6842472
2.0527275 -1.1214758 2.0018151 6579300
2.0560629 -1.1434119 2.0091972 6579300
2.0817256 0.22473109 1.9738822 13750737
2.0666769 0.19749472 1.9751632 13882323
2.0591509 0.18095884 1.9824131 14540253
2.0542533 -0.053747095 1.9740461 12434877
2.0598519 -0.073642537 1.9740002 12434877
2.0760701 -0.13406673 1.9729886 12632256
2.0799127 -0.15146348 1.9646342 12434877
2.0648046 -0.73878014 1.9634035 14540253
2.0625927 -0.76315117 1.9706078 14211288
2.0431247 -1.0028311 1.9700894 8355711
2.0466084 -1.0332359 1.9695953 7566195
2.0510385 -1.0622877 1.9705447 6974058
2.0547051 -1.0904269 1.9765129 6974058
2.0570061 -1.1096435 1.9827071 6645093
2.0881133 0.24320862 1.938857 13027014
2.0789437 0.22707644 1.9444095 13487565
2.0637021 0.19944224 1.9454927 13750737
2.0532494 -0.053606234 1.9441214 12105912
2.0590527 -0.074166223 1.9439716 12237498
2.0749009 -0.13359359 1.9429955 12171705
2.0794003 -0.15139902 1.9516518 12303291
2.0669501 -0.62760419 1.926719 14342874
2.0661576 -0.64617503 1.9320395 14211288
2.0651629 -0.67416006 1.9356066 14342874
2.0642712 -0.70463854 1.9390143 14211288
2.0623202 -0.7331118 1.9408555 14342874
2.0491588 -0.97279209 1.9401162 8684676
2.0523164 -1.0030297 1.9398642 7763574
2.0544708 -1.0302806 1.9454701 7039851
2.0569077 -1.0553882 1.9512472 6645093
2.0860281 0.24500361 1.9122435 13158600
2.0756209 0.22733885 1.9148358 13487565
2.0615382 0.20165914 1.9153061 13421772
2.0526636 -0.05183062 1.9133584 11645361
2.0744703 -0.13224322 1.9136188 11842740
2.0665855 -0.5957039 1.8979943 13882323
2.0654173 -0.61662531 1.9080514 14474460
2.0630944 -0.6434136 1.9099779 14211288
2.0615911 -0.67334157 1.9108415 14013909
2.0527654 -0.91263008 1.9098392 9539985
2.0544553 -0.942406 1.9104135 8750469
2.0555797 -0.97142464 1.9165664 7960953
2.0570343 -0.99554443 1.9216098 7566195
2.0840433 0.24646595 1.8831589 13092807
2.0725439 0.22705731 1.8849174 12961221
2.0594738 0.20290309 1.8852003 13027014
2.0524495 -0.048742697 1.8837152 11316396
2.0678079 -0.10281827 1.883343 11382189
2.0743928 -0.1289812 1.8838246 11250603
2.0650787 -0.58993506 1.8778101 13882323
2.0625966 -0.61291444 1.8818564 13882323
2.0555229 -0.85261327 1.8800321 10526880
2.0565357 -0.88172519 1.881372 9868950
2.0572631 -0.91152608 1.8879892 9013641
2.0578606 -0.93248308 1.89323 9013641
2.0821261 0.24706379 1.8542897 12500670
2.0704293 0.22732103 1.8549355 12763842
2.0581112 0.20419809 1.8561389 13158600
2.052556 -0.044779196 1.8540778 11053224
2.0692706 -0.10283251 1.8533583 11184810
2.0745595 -0.12399288 1.8547046 11316396
2.0634458 -0.58452481 1.8504474 13553358
2.0562837 -0.79244596 1.8513646 11447982
2.0574181 -0.82205147 1.8514037 10658466
2.0580664 -0.84963059 1.858862 10263708
2.0806336 0.24769485 1.8236544 12434877
2.0686345 0.22725233 1.8249207 12566463
2.0566969 0.20461434 1.8254386 12698049
2.0482769 -0.024505839 1.8185475 10724259
2.0534034 -0.04168687 1.8241587 10855845
2.0625944 -0.07220044 1.8239384 10790052
2.0711143 -0.10235946 1.8238288 10987431
2.0750017 -0.11984452 1.8320101 11842740
2.0565391 -0.76290315 1.8208904 11447982
2.0578468 -0.78978366 1.8247265 10921638
2.0586915 -0.81085157 1.8318105 11184810
2.0801072 0.24902567 1.7945838 12566463
2.0675132 0.22759441 1.7948725 12434877
2.0556076 0.20477465 1.7950162 12434877
2.0487635 -0.020521451 1.792702 10592673
2.0556397 -0.041741565 1.7938321 10526880
2.0649624 -0.072216764 1.7938449 10592673
2.0720477 -0.09715005 1.7949982 10526880
2.0611064 -0.58379138 1.7916399 12763842
2.0560746 -0.73259622 1.7904859 11250603
2.0578024 -0.75951427 1.7937076 11119017
2.0586755 -0.78004575 1.804888 9605778
2.0780883 0.24743995 1.7647272 11974326
2.0665262 0.22753742 1.7649617 12434877
2.0542386 0.20356891 1.7653589 12434877
2.049428 -0.016175844 1.763561 10724259
2.0579712 -0.041573655 1.7639196 10461087
2.0674844 -0.072053395 1.7638174 10592673
2.0727489 -0.091678694 1.7696872 10461087
2.0604484 -0.58873355 1.7629311 12303291
2.0574293 -0.61303979 1.7616999 12303291
2.0554211 -0.70196396 1.761752 11579568
2.0570648 -0.72821891 1.7644141 11184810
2.0582392 -0.74814457 1.7732604 11908533
2.0775633 0.24784526 1.7342627 11908533
2.0660622 0.22798985 1.7350643 12105912
2.053515 0.20330071 1.7345755 12303291
2.0446625 0.0058442261 1.7230641 10592673
2.0502377 -0.012195829 1.7341137 10592673
2.060477 -0.041671481 1.7338635 10461087
2.06897 -0.068448722 1.7346436 10461087
2.0604169 -0.5926348 1.7419498 11842740
2.0583923 -0.61295468 1.7322944 11842740
2.0561182 -0.64232594 1.7305911 11579568
2.0557818 -0.67267108 1.7295997 11184810
2.0566866 -0.69939494 1.7355163 11184810
2.0575514 -0.71903354 1.7446351 11974326
2.0770335 0.24796668 1.7046604 11974326
2.0654781 0.22800544 1.7049598 12171705
2.0526876 0.20254287 1.7051561 12237498
2.0450964 0.008190833 1.7020335 10855845
2.0519354 -0.011154758 1.7044393 10658466
2.0627937 -0.041531134 1.7037551 10395294
2.069705 -0.062884986 1.7054458 10658466
2.058594 -0.62120265 1.7116063 12105912
2.0574265 -0.64288151 1.707536 11316396
2.0569994 -0.66829407 1.7088559 11184810
2.0573709 -0.69011313 1.7157874 9868950
2.0758266 0.24696794 1.6761841 11776947
2.0650346 0.22830915 1.6748326 12171705
2.0516975 0.20149913 1.6750145 12237498
2.0453045 0.011582797 1.6736742 10724259
2.0537555 -0.011080764 1.6742349 10790052
2.064924 -0.041588489 1.673664 10592673
2.0702891 -0.058517091 1.6799729 10658466
2.0750461 0.24692625 1.6447086 11842740
2.0643799 0.22846648 1.6449006 12303291
2.0510325 0.20156601 1.6453432 12237498
2.0456851 0.013480056 1.6436388 11119017
2.0553925 -0.01181254 1.6445441 10855845
2.0656006 -0.03900104 1.644208 10790052
2.0741055 0.24702621 1.6150227 12171705
2.0634534 0.22869188 1.6149791 12500670
2.0500174 0.20162457 1.6153156 12566463
2.0456805 0.014758848 1.6143473 11316396
2.056356 -0.012303483 1.6140722 11250603
2.0655115 -0.036061812 1.6141156 10987431
2.0727277 0.24715009 1.5848576 12171705
2.0620031 0.22878128 1.5849948 12632256
2.0486052 0.20186579 1.585376 12698049
2.0449328 0.015901912 1.5842173 11447982
2.0562954 -0.012314234 1.5840073 11447982
2.0648918 -0.034090415 1.5837269 11250603
2.0710812 0.24803621 1.5528177 12434877
2.0599158 0.22881657 1.55523 12632256
2.0468516 0.20273921 1.5558431 12961221
2.0437849 0.015723774 1.5549657 11908533
2.0551107 -0.012017496 1.5540242 11842740
2.0638759 -0.03383648 1.5536664 11776947
2.0691676 0.24947235 1.5237988 12895428
2.0569336 0.22880173 1.5252609 13092807
2.0449307 0.20521441 1.5260535 13027014
2.0420482 0.01415328 1.5254462 12369084
2.0527811 -0.011985859 1.5239946 12303291
2.0619974 -0.034762714 1.5229794 12369084
2.1457512 -1.2051823 3.5732927 13882323
2.1417797 -1.2107011 3.5724306 14671839
2.1883066 0.59562927 3.555505 16185078
2.1826556 0.57738584 3.5635247 16316664
2.1679599 0.24742982 3.5622778 16514043
2.1760683 0.22003332 3.5602829 16382457
2.1794505 0.2015503 3.5481744 16777215
2.1456654 -1.206192 3.5694282 15198183
2.1359119 -1.2219198 3.5561125 14606046
2.1204264 -1.2435673 3.5517507 14540253
2.1854401 0.60137522 3.531805 16448250
2.1766346 0.57788998 3.5339336 16382457
2.1656551 0.5480746 3.5340388 16382457
2.1593466 0.52463406 3.5386589 16382457
2.1521931 0.29413107 3.5451076 16777215
2.1544724 0.27541038 3.5365479 16316664
2.1605537 0.24878752 3.5324574 16382457
2.1699815 0.21825328 3.5323167 16514043
2.1762094 0.19550139 3.5277984 16185078
2.1377566 -1.2270954 3.5281162 13882323
2.1225023 -1.2486353 3.5254087 13619151
2.1862512 0.62675714 3.4963059 16382457
2.1800735 0.60734159 3.5034485 16316664
2.168401 0.5779199 3.5038855 16316664
2.1599534 0.55203658 3.5077977 16316664
2.150501 0.26772174 3.5153151 16645629
2.1533289 0.24596882 3.5052557 16382457
2.161186 0.21801433 3.5028474 16448250
2.1703866 0.18886974 3.5015812 16514043
2.1746545 0.168753 3.4936457 16514043
2.1405945 -1.232443 3.5023789 13224393
2.1285515 -1.2515311 3.496798 12961221
2.1160269 -1.2719704 3.4920466 12829635
2.1868472 0.65753567 3.4606304 16579836
2.1816137 0.63579738 3.4719126 16514043
2.1705272 0.60798532 3.4740424 16448250
2.1608725 0.58147341 3.4766486 16448250
2.1568539 0.5621618 3.4862783 16514043
2.1490371 0.23578018 3.4840441 16316664
2.15185 0.21646339 3.4754829 16382457
2.159853 0.18863857 3.4725604 16382457
2.1693199 0.15908256 3.4708598 16448250
2.1730993 0.13765021 3.4617014 16382457
2.1350977 -1.2559497 3.469008 12171705
2.1208565 -1.2795299 3.4656086 12040119
2.1124885 -1.2993205 3.4568386 11513775
2.1821365 0.66415209 3.4405775 16185078
2.1725535 0.6386193 3.4439635 16448250
2.1615207 0.61048996 3.4459362 16316664
2.1568098 0.59037375 3.4553165 16185078
2.1476302 0.20610511 3.4561772 16448250
2.1505632 0.18563148 3.4462337 16382457
2.1579628 0.1590628 3.4420898 16382457
2.1674569 0.12984703 3.4407365 16250871
2.1714189 0.10695537 3.4317276 16514043
2.1386139 -1.2631952 3.4467049 12434877
2.1302567 -1.282455 3.4375525 11645361
